# .PCD v0.7 - Point Cloud Data file format
VERSION 0.7
FIELDS x y z intensity
SIZE 4 4 4 4
TYPE F F F F
COUNT 1 1 1 1
WIDTH 1349
HEIGHT 1
VIEWPOINT 0 0 0 1 0 0 0
POINTS 1349
DATA ascii
0.57562554 -1.5108221 -0.54366016 0
-0.81146091 -1.5108221 0.36665738 0
0.16362882 -1.5108221 -0.16135609 0
-0.4212687 -1.5108221 0.0066556334 0
-1.2326059 -1.5108221 1.0402755 0
-1.4304529 -1.5108221 0.4989256 0
-1.2223411 -1.5108221 -1.185625 0
0.5532881 -1.5108221 -1.2063555 0
-0.53377217 -1.5108221 -1.0874922 0
0.75757945 -1.5108221 -1.1332335 0
0.024487019 -1.5108221 -1.0087762 0
-1.0095429 -1.5108221 0.29206365 0
0.78686249 -1.5108221 -0.97776842 0
-0.27240026 -1.5108221 -1.1293167 0
-1.1657412 -1.5108221 -0.93832207 0
-1.4728286 -1.5108221 -1.0590903 0
0.49069583 -1.5108221 -0.82610732 0
-1.2616916 -1.5108221 -0.41681495 0
-0.36020505 -1.5108221 0.073683143 0
0.68739378 -1.5108221 -0.81115365 0
0.042947054 -1.5108221 -0.68330777 0
-0.91347653 -1.5108221 -0.94450092 0
-0.44398499 -1.5108221 0.048943937 0
-1.2574025 -1.5108221 -0.011454299 0
0.13921022 -1.5108221 -0.4040882 0
-1.4922158 -1.5108221 0.95842093 0
-1.3899959 -1.5108221 0.41490352 0
-1.2531288 -1.5108221 0.8118242 0
-0.23255217 -1.5108221 -1.2583923 0
-0.28808105 -1.5108221 -1.117085 0
-1.1307373 -1.5108221 0.7350893 0
-0.48485613 -1.5108221 -0.41688824 0
-1.2877532 -1.5108221 0.80524611 0
-0.52751327 -1.5108221 -0.57418251 0
0.24812055 -1.5108221 -0.69104552 0
0.13223827 -1.5108221 -0.18461621 0
-0.34677339 -1.5108221 -1.1257876 0
-0.99758279 -1.5108221 -0.037670523 0
-1.2800488 -1.5108221 -0.60783148 0
-0.11901617 -1.5108221 -0.6968385 0
-1.2148311 -1.5108221 0.91941071 0
0.87515509 -1.5108221 -0.83496869 0
-1.1921152 -1.5108221 0.07165274 0
-0.97638053 -1.5108221 -0.88873827 0
-0.65769845 -1.5108221 -0.81694949 0
-0.69056827 -1.5108221 -1.1611508 0
-1.0004848 -1.5108221 -0.07063809 0
-1.1004797 -1.5108221 0.13733089 0
0.60063875 -1.5108221 -0.49597454 0
-0.094505787 -1.5108221 -0.46388727 0
-0.79903841 -1.5108221 0.67885739 0
-0.45379221 -1.5108221 0.32128561 0
0.46560538 -1.5108221 -1.0459096 0
0.75459015 -1.5108221 -0.66775036 0
-0.41868806 -1.5108221 -0.096752226 0
0.62819564 -1.5108221 -0.66543543 0
1.085235 -1.5108221 -1.1988827 0
0.61292851 -1.5108221 -0.73858321 0
-1.3520867 -1.5108221 0.85971004 0
0.77911007 -1.5108221 -0.79025769 0
-1.1970851 -1.5108221 0.29150823 0
0.289657 -1.5108221 -0.61993599 0
-1.3237703 -1.5108221 0.1735291 0
0.53682387 -1.5108221 -0.98160243 0
-1.380008 -1.5108221 -0.02730301 0
0.79412305 -1.5108221 -1.1090984 0
-0.22918749 -1.5108221 -1.0309001 0
0.67730629 -1.5108221 -1.2398844 0
-1.2933474 -1.5108221 0.35931402 0
0.84685791 -1.5108221 -1.0949444 0
-1.0559446 -1.5108221 -0.82224417 0
-1.3946157 -1.5108221 -0.71586466 0
0.62095582 -1.5108221 -0.5200069 0
-1.1707351 -1.5108221 -0.94668269 0
-1.0137172 -1.5108221 -1.169732 0
-0.56603533 -1.5108221 -1.0481107 0
0.13527429 -1.5108221 0.51091373 0
-0.37834167 -1.5108221 1.0460387 0
0.74524266 -1.5108221 0.083986819 0
0.51989847 -1.5108221 0.41676688 0
0.9010241 -1.5108221 -0.24684823 0
0.52368498 -1.5108221 0.28836918 0
-0.019280195 -1.5108221 0.65185893 0
0.47704691 -1.5108221 0.4888972 0
1.0123291 -1.5108221 -0.011030532 0
0.93141788 -1.5108221 -0.49739408 0
0.6075114 -1.5108221 0.4459793 0
1.3343909 -1.5108221 -1.0236782 0
-0.32486844 -1.5108221 0.94992971 0
0.6147843 -1.5108221 0.31759202 0
0.11538494 -1.5108221 0.4113698 0
0.70012158 -1.5108221 -0.10191327 0
0.42944258 -1.5108221 0.24211109 0
0.62417978 -1.5108221 -0.11292392 0
0.36102247 -1.5108221 0.18203509 0
-0.11101019 -1.5108221 0.7730056 0
0.42318165 -1.5108221 0.11920929 0
0.75825375 -1.5108221 0.25532389 0
0.82430255 -1.5108221 -0.23462635 0
0.49625289 -1.5108221 0.43799931 0
1.0044227 -1.5108221 -0.14204782 0
0.070652366 -1.5108221 0.64027536 0
0.760674 -1.5108221 -0.2596181 0
0.52567267 -1.5108221 0.45278227 0
0.7591241 -1.5108221 0.33233806 0
0.96667767 -1.5108221 0.051706731 0
0.96917504 -1.5108221 0.14175956 0
-0.38890374 -1.5108221 1.0677004 0
0.22986042 -1.5108221 0.60419357 0
0.53955507 -1.5108221 -0.013100028 0
0.85578364 -1.5108221 0.15450162 0
1.0285267 -1.5108221 -0.27002156 0
1.4349536 -1.5108221 -1.0663917 0
0.63957304 -1.5108221 0.21845877 0
-0.39452255 -1.5108221 1.0394601 0
0.89679754 -1.5108221 0.044472232 0
0.96903259 -1.5108221 -0.14779276 0
0.77353215 -1.5108221 -0.3128593 0
0.79560184 -1.5108221 0.27227885 0
0.49738002 -1.5108221 0.51474106 0
0.55017221 -1.5108221 0.21238655 0
-0.18959308 -1.5108221 0.87878525 0
0.90635657 -1.5108221 -0.010514498 0
0.43457371 -1.5108221 0.37004328 0
1.108376 -1.5108221 -0.37681949 0
1.1336074 -1.5108221 -0.75899351 0
0.03169167 -1.5108221 0.64152569 0
-0.3236711 -1.5108221 0.98015046 0
0.75119925 -1.5108221 0.023820877 0
-0.13957345 -1.5108221 0.75099397 0
0.79367936 -1.5108221 0.079178661 0
0.28893948 -1.5108221 0.65057629 0
0.11264837 -1.5108221 0.69524318 0
0.45429218 -1.5108221 0.26459599 0
1.0396354 -1.5108221 -0.27928615 0
0.4808895 -1.5108221 0.30642897 0
-0.17288172 -1.5108221 0.86318672 0
0.98006493 -1.5108221 -0.040371001 0
0.64071453 -1.5108221 0.25234002 0
0.81659508 -1.5108221 0.072667152 0
0.61553049 -1.5108221 0.34701657 0
0.86108857 -1.5108221 0.13847131 0
-0.20932579 -1.5108221 0.91500366 0
1.1419456 -1.5108221 -0.76721358 0
-0.21892381 -1.5108221 0.84141672 0
0.37869281 -1.5108221 0.28004396 0
1.0639162 -1.5108221 -0.16772127 0
1.0040276 -1.5108221 -0.26432195 0
1.0398192 -1.5108221 -0.41157135 0
0.87566447 -1.5108221 0.075642645 0
0.35909766 -1.5108221 0.50025046 0
1.124492 -1.5108221 -0.25404724 0
1.1319975 -1.5108221 -0.35102054 0
0.37413055 -1.5108221 0.55953395 0
0.45048815 -1.5108221 0.12666404 0
0.654724 -1.5108221 0.096623361 0
0.3574357 -1.5108221 0.12259984 0
0.96933448 -1.5108221 -0.18559489 0
1.1570045 -1.5108221 -0.74960715 0
1.256577 -1.5108221 -0.88415414 0
0.76655269 -1.5108221 -0.33603108 0
0.87974751 -1.5108221 -0.48303497 0
1.4146463 -1.5108221 -1.0150073 0
0.86593062 -1.5108221 0.083147883 0
-0.11939096 -1.5108221 0.87423003 0
0.67621458 -1.5108221 0.27227491 0
0.46688604 -1.5108221 0.013908029 0
0.87153345 -1.5108221 -0.28640336 0
0.48072356 -1.5108221 0.44230884 0
0.86321199 -1.5108221 0.10567194 0
1.2706678 -1.5108221 -0.94825411 0
1.0824217 -1.5108221 -0.49655241 0
0.9137978 -1.5108221 0.010581017 0
1.3240286 -1.5108221 -0.89437079 0
0.83707178 -1.5108221 -0.37731791 0
0.5103094 -1.5108221 0.084051013 0
1.0486891 -1.5108221 -0.59202981 0
0.57165557 -1.5108221 0.33843887 0
0.2471211 -1.5108221 0.5433929 0
0.86811584 -1.5108221 0.1869489 0
0.021191478 -1.5108221 0.74538821 0
0.8917222 -1.5108221 0.25581843 0
1.0850555 -1.5108221 -0.27296096 0
0.97308207 -1.5108221 -0.58450252 0
1.092208 -1.5108221 -0.3367281 0
-0.16362238 -1.5108221 0.77922261 0
0.52893758 -1.5108221 -0.0040946007 0
0.5081197 -1.5108221 0.32295269 0
0.026580334 -1.5108221 0.67152548 0
0.33353102 -1.5108221 0.18078887 0
0.48317516 -1.5108221 0.48112071 0
0.14928436 -1.5108221 0.61968374 0
-0.21446502 -1.5108221 0.88518512 0
1.1587698 -1.5108221 -0.45134792 0
0.99202913 -1.5108221 -0.23927322 0
1.3273364 -1.5108221 -0.82358283 0
1.3367155 -1.5108221 -0.86767006 0
1.0659337 -1.5108221 -0.68247628 0
0.75781709 -1.5108221 -0.059934497 0
0.69409323 -1.5108221 -0.16846836 0
0.94743037 -1.5108221 0.030554175 0
1.1197335 -1.5108221 -0.7727676 0
0.37931108 -1.5108221 0.26367366 0
1.0841148 -1.5108221 -0.27281967 0
0.42869473 -1.5108221 0.25846201 0
0.63878417 -1.5108221 0.13045204 0
1.2470332 -1.5108221 -0.60556626 0
-0.034340978 -1.5108221 0.81525141 0
0.7905364 -1.5108221 0.18397722 0
0.36062306 -1.5108221 0.3357501 0
1.0294112 -1.5108221 -0.28647757 0
0.57631123 -1.5108221 0.22495639 0
0.71946192 -1.5108221 0.3514981 0
0.18191409 -1.5108221 0.68060565 0
0.94111955 -1.5108221 -0.45691311 0
0.92429191 -1.5108221 0.017899066 0
0.49325913 -1.5108221 0.016720414 0
0.81188428 -1.5108221 -0.22732997 0
1.0327883 -1.5108221 -0.62409192 0
0.79280287 -1.5108221 -0.14642924 0
0.54704183 -1.5108221 0.39723027 0
0.57903636 -1.5108221 0.057945788 0
0.78057939 -1.5108221 -0.14475209 0
0.99586838 -1.5108221 -0.19088852 0
0.78059751 -1.5108221 0.32846195 0
0.035888195 -1.5108221 0.58486593 0
0.91237962 -1.5108221 -0.14152595 0
0.12406838 -1.5108221 0.42596292 0
-0.088148475 -1.5108221 0.76900053 0
0.40306884 -1.5108221 0.3932696 0
0.98702902 -1.5108221 -0.18882208 0
0.86193782 -1.5108221 0.27978513 0
0.88039505 -1.5108221 -0.097053766 0
0.24533355 -1.5108221 0.46515727 0
0.7286104 -1.5108221 0.11011791 0
1.4606575 -1.5108221 -1.1394849 0
0.78398812 -1.5108221 0.23776981 0
0.12133789 -1.5108221 0.71017617 0
0.075464487 -1.5108221 0.55589056 0
0.30106556 -1.5108221 0.59123439 0
1.0812024 -1.5108221 -0.58793628 0
0.69436103 -1.5108221 -0.22916204 0
0.33990121 -1.5108221 0.31764138 0
0.58381635 -1.5108221 -0.051796973 0
0.095975637 -1.5108221 0.48244822 0
0.87850523 -1.5108221 0.11627051 0
1.0246973 -1.5108221 -0.54596031 0
1.159439 -1.5108221 -0.53083557 0
1.2852896 -1.5108221 -0.75952482 0
0.6510039 -1.5108221 -0.0022597909 0
0.98229349 -1.5108221 0.00045518577 0
0.82503921 -1.5108221 -0.30478352 0
-0.18656862 -1.5108221 0.83128166 0
0.53800005 -1.5108221 0.35786355 0
0.98100734 -1.5108221 -0.39665142 0
0.97492415 -1.5108221 -0.069550872 0
0.27325785 -1.5108221 0.2450273 0
0.58797091 -1.5108221 0.31955838 0
0.48500663 -1.5108221 0.49521369 0
0.91431916 -1.5108221 -0.31791794 0
1.0319505 -1.5108221 -0.21643506 0
0.25414491 -1.5108221 0.26693189 0
0.29609567 -1.5108221 0.53514642 0
0.96325934 -1.5108221 -0.54185253 0
0.62731397 -1.5108221 0.037090957 0
1.2693555 -1.5108221 -0.70315611 0
0.93209672 -1.5108221 0.0070874244 0
0.67253286 -1.5108221 0.0061499476 0
0.087872863 -1.5108221 0.72827142 0
0.59443623 -1.5108221 -0.12889087 0
1.1333903 -1.5108221 -0.42347533 0
0.30093294 -1.5108221 0.60348129 0
1.2695419 -1.5108221 -0.6914165 0
0.58046746 -1.5108221 0.28760952 0
0.8657223 -1.5108221 -0.15327504 0
0.28159589 -1.5108221 0.57871431 0
1.0291213 -1.5108221 -0.20534119 0
1.1841807 -1.5108221 -0.52450442 0
0.79585922 -1.5108221 0.041717708 0
0.51466572 -1.5108221 0.10776377 0
0.33418727 -1.5108221 0.27752882 0
0.78607833 -1.5108221 -0.34065849 0
1.0831988 -1.5108221 -0.47515422 0
0.56090307 -1.5108221 -0.0554142 0
0.99052024 -1.5108221 -0.59974033 0
0.7687844 -1.5108221 -0.22036773 0
1.3490862 -1.5108221 -1.0444431 0
0.94221014 -1.5108221 0.12733646 0
0.9821552 -1.5108221 -0.094749346 0
1.2149334 -1.5108221 -0.60078949 0
0.15768504 -1.5108221 0.48286742 0
0.87718171 -1.5108221 -0.37977386 0
0.93721938 -1.5108221 0.21737044 0
0.55046505 -1.5108221 -0.091688633 0
-0.037026286 -1.5108221 0.80569494 0
0.57480514 -1.5108221 0.16281235 0
0.59772795 -1.5108221 0.15307146 0
1.1314989 -1.5108221 -0.75157487 0
0.81352574 -1.5108221 -0.24999404 0
-0.15124917 -1.5108221 0.8879596 0
1.3393306 -1.5108221 -0.82866406 0
0.64241183 -1.5108221 0.38108647 0
1.1010991 -1.5108221 -0.32010046 0
0.78361821 -1.5108221 -0.069780052 0
1.2083342 -1.5108221 -0.56818098 0
0.92284411 -1.5108221 -0.53863794 0
0.56252372 -1.5108221 0.25330174 0
0.99659598 -1.5108221 0.037755243 0
0.73324144 -1.5108221 -0.24913394 0
-0.014523983 -1.5108221 0.76765412 0
0.98106003 -1.5108221 -0.51978558 0
0.43681669 -1.5108221 0.10864592 0
0.50971317 -1.5108221 0.43651193 0
0.350021 -1.5108221 0.37463576 0
1.0260075 -1.5108221 -0.20086943 0
0.19850099 -1.5108221 0.53422046 0
0.61767489 -1.5108221 0.018960238 0
-0.018254399 -1.5108221 0.71872807 0
-0.038688064 -1.5108221 0.62995017 0
0.36638308 -1.5108221 0.26303315 0
0.7760672 -1.5108221 -0.20241702 0
0.19077849 -1.5108221 0.56790787 0
0.65299797 -1.5108221 0.36523664 0
0.94318962 -1.5108221 -0.011690006 0
1.3339932 -1.5108221 -0.91275287 0
0.94367677 -1.5108221 -0.094790995 0
0.7749213 -1.5108221 0.016010463 0
-0.17493927 -1.5108221 0.78986466 0
0.27566135 -1.5108221 0.43655568 0
0.5724923 -1.5108221 0.44129044 0
0.66253376 -1.5108221 0.28484958 0
0.37018859 -1.5108221 0.4269793 0
-0.39140928 -1.5108221 1.0362773 0
0.24152458 -1.5108221 0.55692643 0
0.49532008 -1.5108221 0.16509491 0
-0.055061579 -1.5108221 0.65141571 0
0.28918195 -1.5108221 0.22746682 0
0.025461674 -1.5108221 0.65816879 0
1.0645807 -1.5108221 -0.2675384 0
0.84427154 -1.5108221 0.26516223 0
0.13971925 -1.5108221 0.39806056 0
0.51543128 -1.5108221 0.24953377 0
0.78519672 -1.5108221 -0.10572112 0
0.51748055 -1.5108221 -0.025481462 0
0.21113992 -1.5108221 0.55307442 0
0.62024564 -1.5108221 0.21529984 0
1.000381 -1.5108221 -0.042079225 0
0.71055371 -1.5108221 -0.11030394 0
1.2111822 -1.5108221 -0.64227295 0
1.0612503 -1.5108221 -0.40805438 0
0.83120549 -1.5108221 -0.39626259 0
0.67784274 -1.5108221 -0.11031568 0
-0.048688293 -1.5108221 0.844226 0
0.25419402 -1.5108221 0.29667807 0
0.93196559 -1.5108221 -0.082919359 0
0.14179683 -1.5108221 0.57936764 0
1.4349191 -1.5108221 -1.0813917 0
0.43315071 -1.5108221 0.48602384 0
0.42365044 -1.5108221 0.32048643 0
0.67971045 -1.5108221 0.14903706 0
1.1894476 -1.5108221 -0.63784617 0
1.0145954 -1.5108221 -0.10230661 0
-0.30628896 -1.5108221 0.95471048 0
1.0889115 -1.5108221 -0.73666507 0
0.64425594 -1.5108221 0.15108019 0
0.41742808 -1.5108221 0.40118361 0
0.70915616 -1.5108221 0.08422935 0
0.60812789 -1.5108221 0.34030038 0
0.55573881 -1.5108221 0.32950163 0
-0.44214308 -1.5108221 1.1015331 0
0.24504566 -1.5108221 0.48240036 0
0.52747881 -1.5108221 0.37365574 0
0.81170058 -1.5108221 0.27083868 0
1.2208613 -1.5108221 -0.67137498 0
0.26489127 -1.5108221 0.27790713 0
1.2127137 -1.5108221 -0.6159752 0
0.33826292 -1.5108221 0.2870115 0
1.2013478 -1.5108221 -0.86454374 0
0.80549133 -1.5108221 0.12636381 0
0.3371563 -1.5108221 0.26053786 0
1.4316742 -1.5108221 -1.1184285 0
0.85039073 -1.5108221 -0.3927002 0
0.12028754 -1.5108221 0.73233837 0
0.84977591 -1.5108221 0.14220637 0
0.93016386 -1.5108221 -0.26095894 0
1.1751528 -1.5108221 -0.54210114 0
0.73500115 -1.5108221 0.18799165 0
0.86625844 -1.5108221 0.10465881 0
-0.12845159 -1.5108221 0.71998131 0
0.61072052 -1.5108221 0.11788011 0
0.47803199 -1.5108221 0.4707191 0
0.7547133 -1.5108221 0.17623568 0
0.59780955 -1.5108221 0.43192494 0
0.99437964 -1.5108221 0.024148658 0
1.031747 -1.5108221 -0.068785608 0
0.46018642 -1.5108221 0.087514281 0
0.55238706 -1.5108221 -0.02658391 0
-0.102929 -1.5108221 0.75769377 0
0.16822791 -1.5108221 0.65849274 0
-0.20415413 -1.5108221 0.91767383 0
0.40970552 -1.5108221 0.5213384 0
0.099540591 -1.5108221 0.76240277 0
1.0086551 -1.5108221 -0.61487836 0
0.6647042 -1.5108221 0.046236873 0
0.63827258 -1.5108221 0.29431248 0
0.95179558 -1.5108221 -0.20705467 0
1.1008544 -1.5108221 -0.44766307 0
-0.28506207 -1.5108221 0.94636321 0
1.035545 -1.5108221 -0.65938663 0
0.95422029 -1.5108221 -0.49751765 0
0.83215201 -1.5108221 -0.13641536 0
-0.37227857 -1.5108221 1.0404496 0
0.61474723 -1.5108221 -0.091057777 0
0.73344326 -1.5108221 0.36250475 0
-0.22707498 -1.5108221 0.97132659 0
0.74957335 -1.5108221 0.31101 0
1.0725046 -1.5108221 -0.64587247 0
1.0284948 -1.5108221 -0.16163751 0
0.43140024 -1.5108221 0.29741311 0
0.4792099 -1.5108221 0.39390302 0
0.93274546 -1.5108221 -0.11951184 0
0.79084569 -1.5108221 -0.36915112 0
0.015487313 -1.5108221 0.53058302 0
0.22730517 -1.5108221 0.57831144 0
0.62223041 -1.5108221 0.29554445 0
0.56087565 -1.5108221 0.47532362 0
0.20774043 -1.5108221 0.62232453 0
1.1514837 -1.5108221 -0.77810764 0
0.014701009 -1.5108221 0.5513128 0
0.89012396 -1.5108221 -0.26603156 0
0.29901791 -1.5108221 0.33061504 0
0.22819924 -1.5108221 0.57181495 0
0.89554167 -1.5108221 -0.40969491 0
0.7674489 -1.5108221 -0.29467177 0
0.52899152 -1.5108221 0.20714921 0
0.83242053 -1.5108221 -0.1568771 0
-0.047568679 -1.5108221 0.83776438 0
0.79889047 -1.5108221 -0.088129759 0
0.79903108 -1.5108221 -0.36062378 0
0.89119577 -1.5108221 -0.00584957 0
0.83936274 -1.5108221 -0.063127339 0
0.93931961 -1.5108221 -0.088992357 0
1.1828318 -1.5108221 -0.51656884 0
1.0337839 -1.5108221 -0.059031673 0
0.77263439 -1.5108221 0.29700893 0
0.80394274 -1.5108221 0.13251242 0
0.19927156 -1.5108221 0.59806502 0
0.94912571 -1.5108221 0.16969663 0
0.6442337 -1.5108221 0.33929694 0
0.9597944 -1.5108221 -0.0514898 0
0.88628554 -1.5108221 -0.23148432 0
0.74415499 -1.5108221 0.343972 0
0.4613238 -1.5108221 0.22444695 0
0.63280654 -1.5108221 0.40180802 0
0.51446295 -1.5108221 0.3174234 0
1.0457065 -1.5108221 -0.16568643 0
0.19852686 -1.5108221 0.67838937 0
-0.0066457987 -1.5108221 0.65213716 0
0.37452036 -1.5108221 0.42032647 0
0.62565899 -1.5108221 0.16130543 0
0.54686588 -1.5108221 0.19657254 0
0.81486464 -1.5108221 0.057408214 0
0.75128174 -1.5108221 -0.048738241 0
0.54133534 -1.5108221 0.1324873 0
0.40661299 -1.5108221 0.078899741 0
0.633506 -1.5108221 -0.096587241 0
0.66689992 -1.5108221 0.32421291 0
0.70566517 -1.5108221 -0.18652815 0
0.50997603 -1.5108221 -0.037176847 0
0.7218796 -1.5108221 -0.22615695 0
0.67331415 -1.5108221 -0.18980467 0
1.4639652 -1.5108221 -1.1755726 0
-0.37533009 -1.5108221 0.99053526 0
0.97751278 -1.5108221 -0.41340247 0
0.35803485 -1.5108221 0.40894967 0
1.1460795 -1.5108221 -0.4833028 0
0.34379852 -1.5108221 0.13950324 0
0.23748064 -1.5108221 0.34099925 0
0.57751882 -1.5108221 0.28332907 0
0.46974969 -1.5108221 0.26000911 0
1.0053666 -1.5108221 -0.44589752 0
0.13372707 -1.5108221 0.49778068 0
0.33668017 -1.5108221 0.47645009 0
0.34611207 -1.5108221 0.44257492 0
0.71784157 -1.5108221 0.2942777 0
0.68994254 -1.5108221 -0.20353246 0
0.95153016 -1.5108221 -0.21841297 0
0.88164151 -1.5108221 -0.21680725 0
0.93515003 -1.5108221 0.053086847 0
-0.14951944 -1.5108221 0.91606104 0
0.38423336 -1.5108221 0.40025789 0
1.3303943 -1.5108221 -0.89890856 0
1.2193478 -1.5108221 -0.59735721 0
-0.32374024 -1.5108221 1.0166229 0
0.37858325 -1.5108221 0.44567734 0
0.47977066 -1.5108221 0.1355316 0
0.80925477 -1.5108221 -0.011727929 0
0.88319343 -1.5108221 0.18385606 0
0.28714985 -1.5108221 0.56379807 0
0.84058344 -1.5108221 -0.22909474 0
0.65669781 -1.5108221 0.35764796 0
0.42500949 -1.5108221 0.091778994 0
0.99718273 -1.5108221 -0.11806618 0
0.74284267 -1.5108221 0.053058386 0
0.49298072 -1.5108221 0.27703059 0
1.0138032 -1.5108221 -0.18057725 0
0.80361009 -1.5108221 -0.0061376393 0
0.83558685 -1.5108221 0.26116979 0
0.86405671 -1.5108221 0.28471312 0
1.0172732 -1.5108221 -0.65290213 0
0.29935932 -1.5108221 0.31867504 0
0.041746736 -1.5108221 0.71097374 0
0.57005507 -1.5108221 0.028538227 0
0.38526416 -1.5108221 0.54684299 0
0.31218266 -1.5108221 0.54277605 0
0.7052533 -1.5108221 0.27243885 0
1.1406524 -1.5108221 -0.43050611 0
0.31087041 -1.5108221 0.18839216 0
1.0828868 -1.5108221 -0.64995587 0
0.81312782 -1.5108221 -0.21792102 0
0.96998996 -1.5108221 0.033223055 0
0.878075 -1.5108221 -0.080395401 0
0.40128976 -1.5108221 0.26568365 0
0.94667017 -1.5108221 0.1503496 0
0.74853921 -1.5108221 -0.16389412 0
0.41353059 -1.5108221 0.13158834 0
0.23168039 -1.5108221 0.43344653 0
0.70257235 -1.5108221 0.051126063 0
0.49667555 -1.5108221 0.24295777 0
0.87972963 -1.5108221 -0.45337963 0
0.49451303 -1.5108221 0.18612754 0
0.69385856 -1.5108221 -0.26355469 0
-0.13964701 -1.5108221 0.81416762 0
0.37578309 -1.5108221 0.55676204 0
0.40040612 -1.5108221 0.35386312 0
0.34806985 -1.5108221 0.4294399 0
1.0985693 -1.5108221 -0.28230292 0
1.1304102 -1.5108221 -0.30327109 0
0.76332831 -1.5108221 0.26506016 0
0.58226514 -1.5108221 -0.11752331 0
1.1720557 -1.5108221 -0.58877087 0
1.0847085 -1.5108221 -0.71624911 0
0.023653984 -1.5108221 0.5445472 0
0.084471941 -1.5108221 0.50620198 0
0.88409758 -1.5108221 0.057518482 0
1.1435078 -1.5108221 -0.5013001 0
1.0868776 -1.5108221 -0.61147541 0
0.93642032 -1.5108221 0.21520078 0
1.0306289 -1.5108221 -0.48935318 0
0.93931556 -1.5108221 -0.48192143 0
0.87301755 -1.5108221 0.10701805 0
0.29117656 -1.5108221 0.43009442 0
1.1111048 -1.5108221 -0.63905156 0
1.0368322 -1.5108221 -0.36619294 0
1.3579637 -1.5108221 -1.044297 0
0.32436907 -1.5108221 0.45290178 0
0.62020731 -1.5108221 0.028499484 0
0.57903761 -1.5108221 0.070176303 0
0.46543443 -1.5108221 0.41306835 0
0.45230359 -1.5108221 0.33591932 0
0.63013381 -1.5108221 -0.12576604 0
1.0324776 -1.5108221 -0.29769087 0
-0.17564464 -1.5108221 0.93250704 0
0.93492639 -1.5108221 -0.32836875 0
0.67600077 -1.5108221 0.19545954 0
1.2347271 -1.5108221 -0.89688551 0
0.021911383 -1.5108221 0.61338151 0
0.35688853 -1.5108221 0.31048632 0
0.24395931 -1.5108221 0.48514509 0
0.72470963 -1.5108221 -0.23679447 0
-0.17117834 -1.5108221 0.91029358 0
0.62058377 -1.5108221 -0.041636527 0
0.79885828 -1.5108221 0.11829603 0
0.43034893 -1.5108221 0.47769976 0
1.0395083 -1.5108221 -0.083842188 0
0.54549432 -1.5108221 -0.041083813 0
0.015621185 -1.5108221 0.7377823 0
0.50970632 -1.5108221 0.31174338 0
1.1264135 -1.5108221 -0.46331942 0
0.4351083 -1.5108221 0.30966032 0
0.73078597 -1.5108221 0.098144352 0
0.84331536 -1.5108221 -0.26235747 0
1.0972248 -1.5108221 -0.27560109 0
0.95287764 -1.5108221 -0.044372693 0
-0.1826551 -1.5108221 0.83652306 0
-0.36779809 -1.5108221 1.0399826 0
0.22387588 -1.5108221 0.29526913 0
1.1808002 -1.5108221 -0.41469157 0
0.51475525 -1.5108221 0.19590217 0
0.64990985 -1.5108221 0.2285133 0
0.84148669 -1.5108221 0.13678366 0
0.74200523 -1.5108221 -0.16454887 0
0.9095068 -1.5108221 -0.0095711946 0
0.1922071 -1.5108221 0.69676745 0
0.19662523 -1.5108221 0.58817929 0
0.19875431 -1.5108221 0.68229693 0
-0.41695714 -1.5108221 1.0912064 0
0.9789471 -1.5108221 0.071035743 0
-0.30024481 -1.5108221 0.98895407 0
0.34934139 -1.5108221 0.19894922 0
0.75885683 -1.5108221 -0.2582913 0
0.9938879 -1.5108221 0.033471588 0
0.86734319 -1.5108221 -0.044184923 0
0.82199091 -1.5108221 0.2800709 0
0.94949526 -1.5108221 -0.25656006 0
0.5765236 -1.5108221 0.45115149 0
0.87209749 -1.5108221 0.18453686 0
0.72507173 -1.5108221 -0.17503482 0
0.22869992 -1.5108221 0.49824142 0
1.114575 -1.5108221 -0.41661161 0
0.19061637 -1.5108221 0.6536907 0
0.34339786 -1.5108221 0.15471327 0
0.66859365 -1.5108221 -0.18720555 0
0.31259418 -1.5108221 0.59205717 0
0.2506808 -1.5108221 0.45744658 0
1.1673785 -1.5108221 -0.74016428 0
0.94921947 -1.5108221 -0.14082876 0
1.1296241 -1.5108221 -0.38911831 0
0.6280179 -1.5108221 0.28782296 0
1.2443305 -1.5108221 -0.66767263 0
0.65253502 -1.5108221 0.044138014 0
1.2494497 -1.5108221 -0.76304311 0
0.68000638 -1.5108221 -0.11201471 0
0.36778688 -1.5108221 0.36477864 0
0.18506622 -1.5108221 0.53958595 0
0.56454194 -1.5108221 0.055909038 0
0.87178582 -1.5108221 -0.43181437 0
0.26795435 -1.5108221 0.35665017 0
-0.32629025 -1.5108221 1.0342684 0
0.65814871 -1.5108221 0.11816108 0
0.91531062 -1.5108221 -0.3240003 0
0.16902614 -1.5108221 0.64639509 0
1.1334682 -1.5108221 -0.60443997 0
0.14725876 -1.5108221 0.58263111 0
0.064274192 -1.5108221 0.51703668 0
0.24317658 -1.5108221 0.39769727 0
0.038654804 -1.5108221 0.50683975 0
0.070641994 -1.5108221 0.68621945 0
1.0706043 -1.5108221 -0.67495704 0
0.20581758 -1.5108221 0.39669716 0
-0.29820836 -1.5108221 0.9102447 0
0.96582258 -1.5108221 0.039259568 0
0.63928747 -1.5108221 -0.19447225 0
1.0759095 -1.5108221 -0.55138648 0
1.1750976 -1.5108221 -0.61324584 0
-0.0022736788 -1.5108221 0.818591 0
1.3441772 -1.5108221 -1.00188 0
1.229543 -1.5108221 -0.54548973 0
1.0822613 -1.5108221 -0.33276436 0
1.263899 -1.5108221 -0.63587654 0
1.0021808 -1.5108221 -0.15112801 0
0.14380538 -1.5108221 0.64338613 0
0.23791885 -1.5108221 0.59696478 0
0.62999654 -1.5108221 0.31712812 0
-0.4342823 -1.5108221 1.0949521 0
0.20886207 -1.5108221 0.50234765 0
1.2377225 -1.5108221 -0.89455324 0
0.98597264 -1.5108221 0.055424545 0
-0.011813283 -1.5108221 0.56022084 0
0.22521257 -1.5108221 0.52573276 0
0.74375248 -1.5108221 -0.12838405 0
0.34779406 -1.5108221 0.15655398 0
0.40780866 -1.5108221 0.24618614 0
-0.27350152 -1.5108221 0.99485505 0
1.2871475 -1.5108221 -0.77191889 0
0.098814011 -1.5108221 0.67336476 0
0.089934349 -1.5108221 0.57789731 0
0.27939755 -1.5108221 0.53628469 0
0.068173766 -1.5108221 0.69318306 0
0.91067344 -1.5108221 -0.33132285 0
0.78503704 -1.5108221 0.28333798 0
1.0852056 -1.5108221 -0.66953784 0
1.2791047 -1.5108221 -0.79999739 0
-0.17050099 -1.5108221 0.79470348 0
1.1210328 -1.5108221 -0.37081769 0
0.8314721 -1.5108221 0.1780706 0
0.14421678 -1.5108221 0.40774059 0
0.52885759 -1.5108221 0.12846762 0
0.90896869 -1.5108221 -0.12944078 0
0.52537036 -1.5108221 0.23567367 0
0.74616349 -1.5108221 0.072263241 0
-0.37991464 -1.5108221 1.038048 0
0.32557333 -1.5108221 0.24267519 0
0.89695323 -1.5108221 -0.14375597 0
-0.10280156 -1.5108221 0.69403768 0
1.0353334 -1.5108221 -0.60348207 0
0.81569779 -1.5108221 -0.13684642 0
0.57547915 -1.5108221 -0.090545893 0
0.78031689 -1.5108221 0.0029208064 0
1.1394957 -1.5108221 -0.41692904 0
1.0434299 -1.5108221 -0.42214203 0
0.67947656 -1.5108221 -0.10984248 0
0.2869246 -1.5108221 0.53877401 0
0.32318485 -1.5108221 0.2852298 0
1.4525323 -1.5108221 -1.1150378 0
0.45411766 -1.5108221 0.015773296 0
0.79466695 -1.5108221 -0.27288145 0
0.15886056 -1.5108221 0.36591244 0
0.74191457 -1.5108221 0.31704262 0
0.76368946 -1.5108221 -0.17125195 0
0.65464187 -1.5108221 0.051279843 0
0.098003268 -1.5108221 0.68306428 0
0.55659527 -1.5108221 -0.079797149 0
0.11716902 -1.5108221 0.61623716 0
1.3303338 -1.5108221 -0.89792746 0
0.50613558 -1.5108221 0.39301556 0
1.1160723 -1.5108221 -0.45167488 0
0.97691673 -1.5108221 -0.36795264 0
-0.09416914 -1.5108221 0.69698083 0
0.58065718 -1.5108221 0.12934256 0
0.35269654 -1.5108221 0.36655545 0
0.32826024 -1.5108221 0.57390177 0
0.2580843 -1.5108221 0.66032618 0
0.17884147 -1.5108221 0.57202756 0
0.65356719 -1.5108221 0.0059981942 0
0.32379293 -1.5108221 0.26679492 0
-0.054937959 -1.5108221 0.47954974 0
0.61971581 -1.5108221 -0.31630036 0
-0.21279776 -1.5108221 0.34330344 0
-0.55759788 -1.5108221 0.51679409 0
0.067955971 -1.5108221 0.14005458 0
-0.41353869 -1.5108221 0.8415904 0
0.27646297 -1.5108221 -0.088126004 0
-0.35754666 -1.5108221 0.96295005 0
-0.3148942 -1.5108221 0.50690359 0
0.23575008 -1.5108221 -0.10092878 0
0.31056762 -1.5108221 -0.042924702 0
-0.27483892 -1.5108221 0.36944938 0
0.74776852 -1.5108221 -0.42687359 0
0.15716845 -1.5108221 0.18521622 0
-0.61430353 -1.5108221 0.99433935 0
-0.41478205 -1.5108221 0.58900225 0
-0.81229341 -1.5108221 0.83315313 0
-0.82457829 -1.5108221 0.98502141 0
1.1086249 -1.5108221 -0.85861266 0
0.27139634 -1.5108221 0.12780766 0
-0.9770174 -1.5108221 1.0763607 0
0.41167563 -1.5108221 -0.17780149 0
0.85681301 -1.5108221 -0.48857421 0
-0.58902723 -1.5108221 1.0184716 0
-0.55789793 -1.5108221 0.60140139 0
0.73152763 -1.5108221 -0.4570981 0
-0.90466809 -1.5108221 0.81961536 0
0.23199779 -1.5108221 -0.035912395 0
-0.19620347 -1.5108221 0.35242742 0
0.42080355 -1.5108221 -0.30616319 0
0.091937363 -1.5108221 0.2001425 0
0.28439024 -1.5108221 0.076426178 0
-0.63765371 -1.5108221 0.87109911 0
0.27606535 -1.5108221 -0.0012075305 0
-1.267674 -1.5108221 1.2120982 0
-0.58776605 -1.5108221 0.95245057 0
0.026767492 -1.5108221 0.32382426 0
1.0856928 -1.5108221 -0.77059734 0
-0.88544333 -1.5108221 0.85897231 0
0.2404418 -1.5108221 -0.030269861 0
-0.67292315 -1.5108221 1.1611912 0
-0.55183518 -1.5108221 0.53302383 0
-0.49099407 -1.5108221 1.0109106 0
-0.26302409 -1.5108221 0.65139687 0
1.1138458 -1.5108221 -0.88659263 0
0.10569179 -1.5108221 0.10580784 0
-1.1449084 -1.5108221 1.1705236 0
0.86664611 -1.5108221 -0.50889438 0
-0.67021388 -1.5108221 0.81289327 0
-0.84937781 -1.5108221 1.0629679 0
-1.2203751 -1.5108221 1.1927717 0
-1.1567131 -1.5108221 1.2058794 0
0.12045866 -1.5108221 0.090429306 0
-0.36257511 -1.5108221 0.53727037 0
-0.39828962 -1.5108221 0.949808 0
-0.64738768 -1.5108221 0.98526371 0
-0.14188296 -1.5108221 0.59894991 0
-0.3575682 -1.5108221 0.52249765 0
-0.71610725 -1.5108221 1.0231812 0
-0.096651912 -1.5108221 0.28061247 0
-0.84136474 -1.5108221 0.89608836 0
-1.0501274 -1.5108221 1.1196829 0
0.70079672 -1.5108221 -0.42548805 0
-0.60130745 -1.5108221 0.98200667 0
1.0636778 -1.5108221 -0.82939821 0
-0.52379489 -1.5108221 0.74362004 0
-0.27834326 -1.5108221 0.73287112 0
0.28671312 -1.5108221 -0.15075815 0
0.16036791 -1.5108221 0.14531213 0
-0.14784777 -1.5108221 0.43800372 0
-0.24340978 -1.5108221 0.79183042 0
0.82818419 -1.5108221 -0.64428872 0
0.80940723 -1.5108221 -0.48071313 0
0.91176486 -1.5108221 -0.66987228 0
-0.85856545 -1.5108221 0.80989146 0
0.2056393 -1.5108221 -0.0039548278 0
-0.63115406 -1.5108221 0.87256825 0
-0.92525518 -1.5108221 1.2076448 0
-0.084757447 -1.5108221 0.36213762 0
-0.50187474 -1.5108221 1.0339701 0
0.19488621 -1.5108221 0.050392807 0
-0.65068579 -1.5108221 0.86914635 0
-0.24355733 -1.5108221 0.46727544 0
-1.131968 -1.5108221 1.0067908 0
-0.59819078 -1.5108221 0.70940214 0
-0.018649578 -1.5108221 0.18561357 0
0.34555078 -1.5108221 0.11283757 0
-0.21216208 -1.5108221 0.50734228 0
-0.2992205 -1.5108221 0.63729185 0
0.81500661 -1.5108221 -0.56014323 0
0.58084339 -1.5108221 -0.29674432 0
-0.1004917 -1.5108221 0.45218307 0
0.30149651 -1.5108221 -0.10362357 0
-1.4049102 -1.5108221 1.2382107 0
-0.3573342 -1.5108221 0.7798574 0
-0.62173194 -1.5108221 0.89133292 0
-0.92761791 -1.5108221 0.85900807 0
-1.0387223 -1.5108221 1.0054011 0
0.13398933 -1.5108221 0.33062607 0
-0.32489586 -1.5108221 0.70357841 0
1.055799 -1.5108221 -0.84024775 0
-0.55635548 -1.5108221 0.82527888 0
-0.80841541 -1.5108221 1.1345413 0
-0.20997369 -1.5108221 0.36183053 0
-1.3576355 -1.5108221 1.2010548 0
-0.96419263 -1.5108221 1.1985972 0
-0.25647718 -1.5108221 0.46021193 0
0.91276085 -1.5108221 -0.57598162 0
-0.5449664 -1.5108221 0.86258632 0
0.44724798 -1.5108221 -0.27633512 0
-0.14954686 -1.5108221 0.2379216 0
0.31433153 -1.5108221 0.14659119 0
-0.045887947 -1.5108221 0.20908964 0
-0.21170673 -1.5108221 0.76231343 0
0.29711777 -1.5108221 -0.045854688 0
-0.066509962 -1.5108221 0.22206998 0
-0.41251367 -1.5108221 0.70004976 0
0.092622757 -1.5108221 0.089249671 0
-0.34928286 -1.5108221 0.49563056 0
-0.57696521 -1.5108221 0.64309764 0
-1.096222 -1.5108221 1.1035421 0
-0.91559851 -1.5108221 1.1011596 0
0.67782605 -1.5108221 -0.27554321 0
-0.80331469 -1.5108221 0.89213717 0
1.0080712 -1.5108221 -0.81062043 0
0.74852192 -1.5108221 -0.4254232 0
-1.4122562 -1.5108221 1.2710713 0
0.88726163 -1.5108221 -0.56089944 0
-0.13003603 -1.5108221 0.66072577 0
0.055767186 -1.5108221 0.46727216 0
-0.34544897 -1.5108221 0.34030473 0
-0.49300361 -1.5108221 0.51347077 0
-0.1161831 -1.5108221 0.51710552 0
-1.186802 -1.5108221 1.1694497 0
-0.30799353 -1.5108221 0.54355365 0
-0.3932817 -1.5108221 0.52734631 0
-0.26155794 -1.5108221 0.56199235 0
1.3143883 -1.5108221 -1.0502045 0
0.82127517 -1.5108221 -0.4364973 0
-1.0260015 -1.5108221 1.216783 0
-0.039546967 -1.5108221 0.20902354 0
-0.31337452 -1.5108221 0.44696844 0
0.53094363 -1.5108221 -0.26344326 0
0.2189769 -1.5108221 0.26624605 0
-0.44780558 -1.5108221 0.66146356 0
-0.39165366 -1.5108221 0.50640976 0
-0.49277169 -1.5108221 0.74184889 0
-0.5365023 -1.5108221 0.94018388 0
0.974177 -1.5108221 -0.63913327 0
-0.19083333 -1.5108221 0.56884629 0
-0.93900454 -1.5108221 0.90922511 0
0.075969696 -1.5108221 0.057182133 0
-0.33171034 -1.5108221 0.37440503 0
-0.46377328 -1.5108221 0.95001054 0
-1.082135 -1.5108221 1.1028659 0
0.047979206 -1.5108221 0.40985909 0
-1.0030637 -1.5108221 1.1249973 0
-0.45338154 -1.5108221 0.94080645 0
-0.44386917 -1.5108221 0.78793883 0
-0.35192597 -1.5108221 0.36351311 0
-0.95337152 -1.5108221 0.90544617 0
-1.2563971 -1.5108221 1.1566143 0
-0.61624593 -1.5108221 0.94733936 0
0.34151244 -1.5108221 -0.20975971 0
-0.32516956 -1.5108221 0.32436705 0
-0.26736876 -1.5108221 0.72844768 0
0.60858154 -1.5108221 -0.32764956 0
-0.425951 -1.5108221 1.0338537 0
-0.99515551 -1.5108221 1.1184835 0
0.24066693 -1.5108221 0.048683286 0
0.11510798 -1.5108221 0.27878216 0
-0.78351641 -1.5108221 0.85945708 0
-0.67130899 -1.5108221 0.67293739 0
-0.76086354 -1.5108221 1.0964725 0
-0.63346493 -1.5108221 1.0516015 0
-0.39762986 -1.5108221 0.3866812 0
-0.39295122 -1.5108221 0.8605603 0
-1.1748277 -1.5108221 1.0300319 0
-0.61345589 -1.5108221 1.1121796 0
-1.1696082 -1.5108221 1.2035022 0
0.15266347 -1.5108221 -0.082444072 0
-0.91683942 -1.5108221 1.1246288 0
0.33804768 -1.5108221 0.047310263 0
-0.60873371 -1.5108221 1.0619986 0
-0.5927996 -1.5108221 0.72770727 0
-0.45551619 -1.5108221 0.98758501 0
0.70743483 -1.5108221 -0.32181329 0
-0.81786543 -1.5108221 1.1791419 0
-0.44869089 -1.5108221 1.0363872 0
-0.66152227 -1.5108221 0.96338522 0
-1.2472782 -1.5108221 1.1871002 0
0.16691387 -1.5108221 0.053201318 0
0.54265314 -1.5108221 -0.15743287 0
-0.59657049 -1.5108221 0.76372933 0
0.98312056 -1.5108221 -0.77240217 0
0.064116463 -1.5108221 0.39538199 0
-0.12152147 -1.5108221 0.25773335 0
-0.41104931 -1.5108221 0.95913631 0
-0.096763045 -1.5108221 0.48867059 0
-0.58881229 -1.5108221 0.96674764 0
-0.540806 -1.5108221 0.92819798 0
-0.45868808 -1.5108221 0.92811179 0
-1.2170931 -1.5108221 1.0722764 0
-0.66002154 -1.5108221 0.66031808 0
-0.41581428 -1.5108221 0.50875866 0
-0.20554113 -1.5108221 0.2875089 0
0.87486452 -1.5108221 -0.68938631 0
-1.0358562 -1.5108221 1.0048965 0
-0.52352673 -1.5108221 0.91328853 0
-0.47625107 -1.5108221 0.94337702 0
0.9095673 -1.5108221 -0.70360166 0
-0.60343063 -1.5108221 0.65082288 0
-0.99889159 -1.5108221 1.0701001 0
-0.79980683 -1.5108221 0.9936254 0
-0.73890698 -1.5108221 1.094722 0
-0.19111931 -1.5108221 0.55013567 0
-0.51460797 -1.5108221 0.77201879 0
0.12904829 -1.5108221 0.18554604 0
-0.3419925 -1.5108221 0.40290517 0
0.51281595 -1.5108221 -0.20124245 0
-0.60918617 -1.5108221 0.65177935 0
0.5559448 -1.5108221 -0.13142958 0
-1.0331957 -1.5108221 1.0966567 0
0.16826177 -1.5108221 -0.01865238 0
-0.26071802 -1.5108221 0.82704473 0
0.60570168 -1.5108221 -0.34619537 0
-0.66736269 -1.5108221 1.0324972 0
-0.98241836 -1.5108221 1.1270506 0
-0.69454503 -1.5108221 0.64070427 0
-0.1793167 -1.5108221 0.46280056 0
-0.18140388 -1.5108221 0.29810417 0
-0.46828091 -1.5108221 0.6889227 0
-0.033072587 -1.5108221 0.56855118 0
-0.85782492 -1.5108221 0.82314897 0
0.72667623 -1.5108221 -0.46270719 0
0.85513663 -1.5108221 -0.68025786 0
0.42066896 -1.5108221 -0.16025633 0
-1.3573682 -1.5108221 1.2198098 0
-0.95529819 -1.5108221 1.1041963 0
-0.69916737 -1.5108221 0.76109278 0
-0.31709379 -1.5108221 0.67159283 0
-0.56522858 -1.5108221 0.86454719 0
-0.095053673 -1.5108221 0.30045968 0
-0.87315178 -1.5108221 1.0358276 0
-0.59629673 -1.5108221 1.0402144 0
0.57336158 -1.5108221 -0.34472615 0
0.25740248 -1.5108221 0.092724234 0
-0.34861764 -1.5108221 0.82559144 0
-1.0412216 -1.5108221 1.0673034 0
1.2014675 -1.5108221 -0.88855511 0
0.18489766 -1.5108221 0.14397237 0
-0.63362682 -1.5108221 0.65094304 0
-0.61073434 -1.5108221 0.81316656 0
0.22969165 -1.5108221 0.1201587 0
-0.51920831 -1.5108221 1.0386207 0
-0.22192842 -1.5108221 0.63465738 0
0.26853877 -1.5108221 0.16425812 0
-0.68026149 -1.5108221 0.69471025 0
0.88934994 -1.5108221 -0.63443184 0
-1.1397072 -1.5108221 1.0636382 0
0.24089427 -1.5108221 0.22458676 0
-0.53301042 -1.5108221 1.0424817 0
-0.73504198 -1.5108221 0.81599545 0
-0.29459906 -1.5108221 0.51449835 0
-1.3701141 -1.5108221 1.2322021 0
-0.61293131 -1.5108221 0.97139597 0
0.11576325 -1.5108221 0.077884138 0
0.93611372 -1.5108221 -0.63903999 0
0.70599324 -1.5108221 -0.29102615 0
-0.97028649 -1.5108221 1.1411601 0
-0.088812709 -1.5108221 0.3673262 0
-0.089635134 -1.5108221 0.12216914 0
0.015956573 -1.5108221 0.49949944 0
-0.17765602 -1.5108221 0.71695989 0
0.14649749 -1.5108221 -0.069394112 0
-0.091467202 -1.5108221 0.59461212 0
0.44029522 -1.5108221 -0.30547518 0
0.68243265 -1.5108221 -0.27559265 0
1.4004948 -1.5108221 -1.1350006 0
-0.18169367 -1.5108221 0.19067597 0
-0.48868281 -1.5108221 0.79356849 0
-0.25172973 -1.5108221 0.49739528 0
0.62836003 -1.5108221 -0.4770999 0
0.23242277 -1.5108221 0.19432466 0
0.6248948 -1.5108221 -0.46425968 0
-0.46198851 -1.5108221 1.0383043 0
0.53295904 -1.5108221 -0.35230833 0
-0.61835074 -1.5108221 1.1235001 0
0.34795287 -1.5108221 0.039631546 0
-0.03525275 -1.5108221 0.35782802 0
-0.95943928 -1.5108221 0.95708776 0
-0.5163123 -1.5108221 0.84323382 0
0.5252434 -1.5108221 -0.13594426 0
-0.8615104 -1.5108221 0.87949693 0
0.5144217 -1.5108221 -0.31031483 0
-0.79468626 -1.5108221 0.93130416 0
-1.3720002 -1.5108221 1.236733 0
0.19200432 -1.5108221 -0.03384769 0
0.22365427 -1.5108221 -0.080504537 0
-0.97165966 -1.5108221 1.0066195 0
0.33908683 -1.5108221 0.079154611 0
0.37033492 -1.5108221 -0.14286041 0
0.71389431 -1.5108221 -0.45233384 0
-0.13777089 -1.5108221 0.48176885 0
1.1975763 -1.5108221 -0.93952727 0
-0.49318385 -1.5108221 1.0520097 0
0.80115896 -1.5108221 -0.46468255 0
-0.60970581 -1.5108221 0.65885973 0
-0.080294013 -1.5108221 0.6188795 0
-0.27102023 -1.5108221 0.43800473 0
0.19607124 -1.5108221 0.18213189 0
-0.61916101 -1.5108221 1.1585022 0
1.2614331 -1.5108221 -0.96676922 0
0.03285253 -1.5108221 0.14950544 0
0.42381853 -1.5108221 -0.055869803 0
-0.71093392 -1.5108221 1.1360416 0
0.069751263 -1.5108221 0.078939378 0
0.42005676 -1.5108221 -0.27389699 0
-1.176734 -1.5108221 1.1746455 0
-0.73714983 -1.5108221 1.1200113 0
-0.5943799 -1.5108221 0.96576315 0
0.96765661 -1.5108221 -0.65360844 0
-0.66491121 -1.5108221 1.0071504 0
0.33296561 -1.5108221 -0.23725253 0
-1.0272218 -1.5108221 0.91341472 0
0.5184902 -1.5108221 -0.18839255 0
-0.37420672 -1.5108221 0.89786649 0
0.74062771 -1.5108221 -0.3566699 0
-0.22733748 -1.5108221 0.53445035 0
-0.33737296 -1.5108221 0.68126893 0
-0.16179097 -1.5108221 0.31504714 0
-1.0230181 -1.5108221 1.1859269 0
-0.4204343 -1.5108221 0.69215709 0
-0.59459221 -1.5108221 0.98178363 0
-0.21498823 -1.5108221 0.31060159 0
-0.60793918 -1.5108221 0.72005147 0
-0.47693551 -1.5108221 0.99565864 0
-1.254467 -1.5108221 1.1481463 0
-0.17267525 -1.5108221 0.2762413 0
-0.52125728 -1.5108221 1.1562417 0
0.031899661 -1.5108221 0.47366351 0
0.88766789 -1.5108221 -0.53118593 0
0.82811719 -1.5108221 -0.65337169 0
-1.3707342 -1.5108221 1.2257056 0
-0.047313988 -1.5108221 0.40889072 0
-0.86293483 -1.5108221 1.1103166 0
1.20769 -1.5108221 -0.8876307 0
-0.6256783 -1.5108221 0.59613276 0
-0.055630505 -1.5108221 0.5233044 0
-0.14073801 -1.5108221 0.33727211 0
0.30838531 -1.5108221 -0.10379064 0
-1.154441 -1.5108221 1.0265307 0
-0.8448863 -1.5108221 0.79460084 0
0.22917008 -1.5108221 -0.11121929 0
-0.98472422 -1.5108221 1.1042575 0
-0.57895947 -1.5108221 1.1117693 0
-0.04206254 -1.5108221 0.57898396 0
-0.14812204 -1.5108221 0.69876778 0
-0.46529114 -1.5108221 0.47118413 0
0.46351013 -1.5108221 -0.14064822 0
-0.5452925 -1.5108221 0.9447844 0
-0.089258432 -1.5108221 0.18971312 0
0.32588929 -1.5108221 -0.068426192 0
-0.33363962 -1.5108221 0.56898344 0
-0.6659224 -1.5108221 0.76611835 0
-0.58186698 -1.5108221 0.93625629 0
0.66188282 -1.5108221 -0.48790395 0
0.48637095 -1.5108221 -0.061314128 0
0.78678405 -1.5108221 -0.5032016 0
-0.92051488 -1.5108221 1.129071 0
-0.35912603 -1.5108221 0.54061973 0
-0.50382501 -1.5108221 0.75896448 0
0.36182016 -1.5108221 -0.080337465 0
-0.79996097 -1.5108221 1.0833037 0
-0.84051836 -1.5108221 0.78766346 0
0.16286886 -1.5108221 0.22525892 0
-0.39882475 -1.5108221 0.6608817 0
0.12619931 -1.5108221 0.077534974 0
-0.13716429 -1.5108221 0.48874885 0
0.36934182 -1.5108221 0.078343786 0
0.56136614 -1.5108221 -0.15685141 0
-0.33176291 -1.5108221 0.74564278 0
0.76098132 -1.5108221 -0.42461339 0
1.0008006 -1.5108221 -0.71943098 0
-0.54857385 -1.5108221 0.82961738 0
0.2493034 -1.5108221 0.057762623 0
-0.21497911 -1.5108221 0.79272842 0
-0.6664319 -1.5108221 0.65022433 0
-0.31973311 -1.5108221 0.80738413 0
-1.2030481 -1.5108221 1.178656 0
-0.8630681 -1.5108221 0.86474335 0
-1.1624553 -1.5108221 1.2205422 0
-1.1584347 -1.5108221 1.0470712 0
-0.22920513 -1.5108221 0.46348912 0
-0.26734585 -1.5108221 0.51844895 0
-0.070626497 -1.5108221 0.16106611 0
0.76460868 -1.5108221 -0.36406064 0
0.47558689 -1.5108221 -0.094809636 0
0.7711882 -1.5108221 -0.50413692 0
0.17296219 -1.5108221 -0.025781214 0
-0.38595849 -1.5108221 0.74869502 0
-1.038455 -1.5108221 0.96854913 0
-0.51293308 -1.5108221 0.67193264 0
0.041002989 -1.5108221 0.0028713942 0
0.32578987 -1.5108221 -0.13414794 0
-0.50714862 -1.5108221 0.79172367 0
-0.11755317 -1.5108221 0.50075984 0
1.0697032 -1.5108221 -0.76795632 0
-0.45588541 -1.5108221 0.5846144 0
-0.20942831 -1.5108221 0.31730437 0
-1.3555973 -1.5108221 1.1785495 0
0.066286236 -1.5108221 0.30754405 0
0.9999519 -1.5108221 -0.70161748 0
0.30425364 -1.5108221 0.11134543 0
-0.31697968 -1.5108221 0.89689863 0
-0.60518312 -1.5108221 0.59058022 0
-0.57075536 -1.5108221 1.1087089 0
-0.71349359 -1.5108221 0.72456545 0
-0.51658595 -1.5108221 1.0740308 0
-0.40759504 -1.5108221 0.62366551 0
0.021379486 -1.5108221 0.47518936 0
-0.63207603 -1.5108221 1.1143646 0
0.23412943 -1.5108221 0.013478875 0
-0.71581626 -1.5108221 0.6927861 0
0.15319663 -1.5108221 0.086912632 0
0.72114354 -1.5108221 -0.49779257 0
-0.42047381 -1.5108221 0.81362617 0
0.1028524 -1.5108221 0.33089668 0
-0.71701854 -1.5108221 1.0969636 0
1.4509108 -1.5108221 -1.1801873 0
-0.82451153 -1.5108221 0.91577613 0
-0.61129206 -1.5108221 1.0292208 0
-0.41085541 -1.5108221 0.48614991 0
0.55070055 -1.5108221 -0.11937197 0
-0.42941445 -1.5108221 0.67358428 0
-1.356063 -1.5108221 1.2261156 0
0.062020123 -1.5108221 0.28171623 0
-1.1043272 -1.5108221 1.0818849 0
0.92929542 -1.5108221 -0.72121572 0
0.37143409 -1.5108221 -0.065343529 0
0.36530465 -1.5108221 -0.11152524 0
-0.58544183 -1.5108221 1.038179 0
-0.17431927 -1.5108221 0.55664349 0
-0.40165049 -1.5108221 0.99520701 0
-0.60833549 -1.5108221 0.5783534 0
0.17929316 -1.5108221 0.015691102 0
0.035159588 -1.5108221 0.0079174042 0
-0.076631427 -1.5108221 0.474677 0
1.3495412 -1.5108221 -1.0914807 0
-0.49256229 -1.5108221 0.53695613 0
0.52445573 -1.5108221 -0.14287607 0
-0.58620334 -1.5108221 0.80247575 0
-0.70218229 -1.5108221 1.1752963 0
1.1612344 -1.5108221 -0.92447788 0
0.77681768 -1.5108221 -0.51035994 0
-0.49728554 -1.5108221 0.82538855 0
0.23637503 -1.5108221 0.049258351 0
0.40379691 -1.5108221 0.063363194 0
-1.0837407 -1.5108221 1.2020206 0
0.6869294 -1.5108221 -0.49150592 0
0.93849659 -1.5108221 -0.66851777 0
-0.33208811 -1.5108221 0.31446362 0
-0.97657132 -1.5108221 0.93455541 0
-0.7177844 -1.5108221 0.68743289 0
-1.1142118 -1.5108221 1.1715052 0
-0.21311474 -1.5108221 0.29891896 0
0.77736408 -1.5108221 -0.59716862 0
-0.94680321 -1.5108221 0.97517627 0
0.93586719 -1.5108221 -0.74317425 0
-0.81340516 -1.5108221 0.85701406 0
-0.10046303 -1.5108221 0.25149167 0
0.18060625 -1.5108221 0.0040582418 0
0.61371124 -1.5108221 -0.35488111 0
0.5414266 -1.5108221 -0.11940073 0
1.3975133 -1.5108221 -1.1135694 0
0.71969414 -1.5108221 -0.32198691 0
0.098632433 -1.5108221 0.4052273 0
-0.43852884 -1.5108221 0.67092413 0
0.21883187 -1.5108221 0.19186206 0
-1.3227561 -1.5108221 1.2233329 0
-0.084649712 -1.5108221 0.4960447 0
-1.1624187 -1.5108221 1.1080817 0
-0.45675826 -1.5108221 0.75974298 0
0.042531848 -1.5108221 0.40498531 0
0.75866079 -1.5108221 -0.44434863 0
0.023826778 -1.5108221 0.22410458 0
-0.39570323 -1.5108221 0.93196565 0
-0.51425761 -1.5108221 0.97672701 0
0.29236901 -1.5108221 -0.045931816 0
-0.49634349 -1.5108221 0.48159122 0
0.2340467 -1.5108221 -0.035308421 0
-0.56107873 -1.5108221 1.0768858 0
-0.75616598 -1.5108221 0.80405927 0
-0.3941294 -1.5108221 0.45778114 0
-0.71695179 -1.5108221 0.93952799 0
-0.13239682 -1.5108221 0.45076734 0
0.56280857 -1.5108221 -0.29070523 0
-0.82445037 -1.5108221 1.0041336 0
0.46364653 -1.5108221 -0.30865401 0
0.25455296 -1.5108221 0.02093333 0
-0.4079496 -1.5108221 0.98577958 0
-0.33605152 -1.5108221 0.73603779 0
0.17182416 -1.5108221 0.038982809 0
-0.30980742 -1.5108221 0.30031931 0
1.065679 -1.5108221 -0.71485078 0
-0.98375058 -1.5108221 1.0148993 0
0.25021207 -1.5108221 0.21707106 0
-0.45213991 -1.5108221 1.0318336 0
-0.12292433 -1.5108221 0.35419351 0
0.47304603 -1.5108221 -0.04781805 0
-1.0903409 -1.5108221 1.1566417 0
-0.47002968 -1.5108221 1.0640318 0
-0.7769382 -1.5108221 0.75369948 0
-1.2913182 -1.5108221 1.249948 0
-0.11284268 -1.5108221 0.29448056 0
-0.1852572 -1.5108221 0.23715317 0
0.15713862 -1.5108221 0.24583662 0
-0.93103278 -1.5108221 0.91332209 0
-0.32073966 -1.5108221 0.77109993 0
0.6221208 -1.5108221 -0.20708601 0
-1.1440531 -1.5108221 1.237345 0
-0.56678236 -1.5108221 0.53417623 0
-0.89192998 -1.5108221 0.81622672 0
0.094800472 -1.5108221 -0.022207022 0
1.1906554 -1.5108221 -0.91897178 0
0.061161667 -1.5108221 0.37200278 0
0.93270159 -1.5108221 -0.62413365 0
-0.81222856 -1.5108221 0.73437607 0
0.45564571 -1.5108221 -0.12326059 0
-0.7146247 -1.5108221 0.97188139 0
-0.13063097 -1.5108221 0.15764439 0
0.60101891 -1.5108221 -0.19392422 0
0.28874508 -1.5108221 0.089617699 0
-0.53856099 -1.5108221 0.64150918 0
0.37876952 -1.5108221 0.069453172 0
-0.036738813 -1.5108221 0.29921979 0
-0.7275306 -1.5108221 1.0443013 0
-0.56954062 -1.5108221 0.516801 0
-1.0100801 -1.5108221 1.1108339 0
-0.79947037 -1.5108221 0.98148465 0
0.06922853 -1.5108221 0.050644636 0
0.28272974 -1.5108221 -0.18323684 0
-1.1154156 -1.5108221 1.0391896 0
-0.27539837 -1.5108221 0.71386826 0
-0.020483971 -1.5108221 0.17608619 0
0.55387354 -1.5108221 -0.40685254 0
-0.3447063 -1.5108221 0.45823115 0
-1.1898133 -1.5108221 1.0757166 0
-0.83976197 -1.5108221 0.78705418 0
0.27934974 -1.5108221 0.18899661 0
1.0915781 -1.5108221 -0.79640889 0
-0.52753794 -1.5108221 0.66676807 0
-1.03317 -1.5108221 0.99902666 0
-0.91601229 -1.5108221 0.81846869 0
-0.72447419 -1.5108221 1.0540675 0
0.3003369 -1.5108221 -0.0068469942 0
0.41008794 -1.5108221 -0.27707052 0
-0.98962629 -1.5108221 1.111908 0
0.263192 -1.5108221 -0.054004669 0
-1.1713188 -1.5108221 1.0515122 0
-0.054551482 -1.5108221 0.17673314 0
-0.10190666 -1.5108221 0.26650757 0
-0.047382474 -1.5108221 0.18017626 0
-0.42706913 -1.5108221 0.67056519 0
0.075654387 -1.5108221 0.015947461 0
-0.49231231 -1.5108221 0.66524911 0
-0.30582142 -1.5108221 0.86209661 0
-0.13606888 -1.5108221 0.50773442 0
0.40335095 -1.5108221 -0.27456772 0
0.017859936 -1.5108221 0.10269171 0
0.30222481 -1.5108221 -0.10656226 0
-0.22774351 -1.5108221 0.28066742 0
0.15599814 -1.5108221 0.24713168 0
-0.35609484 -1.5108221 0.41132295 0
-0.72340554 -1.5108221 1.1092143 0
-1.221478 -1.5108221 1.1200556 0
-0.44073939 -1.5108221 0.52383745 0
0.3599627 -1.5108221 -0.13213629 0
0.54534805 -1.5108221 -0.35777473 0
-1.2715358 -1.5108221 1.1636335 0
-0.19510996 -1.5108221 0.2374897 0
0.37744319 -1.5108221 0.067204133 0
-0.15389651 -1.5108221 0.39182532 0
-0.030364797 -1.5108221 0.51441205 0
0.2373929 -1.5108221 -0.15250707 0
0.82540113 -1.5108221 -0.54479182 0
-0.47824103 -1.5108221 1.0792023 0
-0.3862021 -1.5108221 0.62105376 0
0.56484413 -1.5108221 -0.24638015 0
0.083384573 -1.5108221 0.31095609 0
-0.88846087 -1.5108221 0.83765399 0
0.5040313 -1.5108221 -0.3004719 0
-0.17012036 -1.5108221 0.54301912 0
-0.019897372 -1.5108221 0.44898346 0
-0.79762536 -1.5108221 1.1881254 0
-0.6162439 -1.5108221 0.99782753 0
-0.7483815 -1.5108221 0.88468641 0
0.80522996 -1.5108221 -0.62438273 0
-0.29396856 -1.5108221 0.83479106 0
-0.86831093 -1.5108221 0.87420213 0
0.34046981 -1.5108221 0.0056973696 0
0.008579731 -1.5108221 0.043752313 0
-0.61791956 -1.5108221 0.57176542 0
-0.37361979 -1.5108221 0.45210195 0
-0.72524714 -1.5108221 0.64638042 0
-0.24861658 -1.5108221 0.65807796 0
-0.83624041 -1.5108221 1.0930026 0
-0.89494574 -1.5108221 1.1305143 0
0.58233351 -1.5108221 -0.14654548 0
-1.0061371 -1.5108221 1.1716255 0
-0.16604066 -1.5108221 0.19328213 0
0.3933599 -1.5108221 -0.28076881 0
0.016227365 -1.5108221 0.19424731 0
-0.73307467 -1.5108221 0.65209067 0
-0.82636929 -1.5108221 1.0819736 0
-0.053605825 -1.5108221 0.51181567 0
0.39168334 -1.5108221 -0.25320053 0
0.48433197 -1.5108221 -0.26860791 0
-0.68802184 -1.5108221 0.92520666 0
-0.41028932 -1.5108221 0.86768484 0
-0.15389562 -1.5108221 0.25986505 0
-0.13892534 -1.5108221 0.60845053 0
-0.28441566 -1.5108221 0.60216528 0
0.069636881 -1.5108221 0.16025418 0
-0.98836803 -1.5108221 1.0661037 0
0.80820292 -1.5108221 -0.55762744 0
0.40303755 -1.5108221 -0.25603032 0
-0.066779613 -1.5108221 0.47013646 0
0.10806686 -1.5108221 0.13763285 0
-0.32420868 -1.5108221 0.59520644 0
1.0620445 -1.5108221 -0.81219447 0
-0.21634948 -1.5108221 0.52111083 0
0.6320262 -1.5108221 -0.24646264 0
