# .PCD v0.7 - Point Cloud Data file format
VERSION 0.7
FIELDS x y z intensity
SIZE 4 4 4 4
TYPE F F F F
COUNT 1 1 1 1
WIDTH 1388
HEIGHT 1
VIEWPOINT 0 0 0 1 0 0 0
POINTS 1388
DATA ascii
2.9162788 -0.29108709 -0.83081543 0
2.9162788 -0.73075235 -1.2619853 0
2.9162788 1.2468462 -0.14120722 0
2.9162788 1.1298701 0.055129528 0
2.9162788 -0.48499638 -1.2164958 0
2.9162788 0.91126001 -0.78820521 0
2.9162788 0.58229434 -1.2607071 0
2.9162788 0.64961958 -0.36624372 0
2.9162788 1.3405153 0.45743597 0
2.9162788 0.83452946 -0.025298238 0
2.9162788 0.31797713 -1.054006 0
2.9162788 0.47419634 -0.94421697 0
2.9162788 0.52883732 -0.13652647 0
2.9162788 1.3498874 0.37530375 0
2.9162788 -0.09486872 -1.0199109 0
2.9162788 1.28442 0.24890077 0
2.9162788 0.80656683 0.36756551 0
2.9162788 -0.97015685 -1.1906949 0
2.9162788 1.131292 0.052742362 0
2.9162788 1.0513262 -0.81169891 0
2.9162788 1.2887994 0.5004611 0
2.9162788 1.1191924 -0.15639162 0
2.9162788 0.47282362 0.19501853 0
2.9162788 0.93046796 0.46132743 0
2.9162788 1.3139772 -0.64172262 0
2.9162788 -0.74042404 -0.77807647 0
2.9162788 1.1522098 0.75602055 0
2.9162788 1.0596335 0.54685712 0
2.9162788 0.55501014 -1.1448097 0
2.9162788 1.105813 -1.1098821 0
2.9162788 0.41109812 0.016422987 0
2.9162788 -0.60757571 -0.90657961 0
2.9162788 0.28918982 -0.45765525 0
2.9162788 0.90632033 -0.52996624 0
2.9162788 0.81153393 0.42134106 0
2.9162788 0.27253711 -0.35017782 0
2.9162788 0.93516755 0.49765873 0
2.9162788 1.4661801 0.75731087 0
2.9162788 1.325507 -1.0562953 0
2.9162788 1.4594755 0.14088011 0
2.9162788 -0.088214159 -0.32698905 0
2.9162788 -0.18607423 -1.0906018 0
2.9162788 0.38386613 -0.56578022 0
2.9162788 0.02442956 -0.34179068 0
2.9162788 -0.15903997 -0.36035353 0
2.9162788 0.46178782 -0.20117617 0
2.9162788 1.2204905 0.23630834 0
2.9162788 0.20356888 -0.71574408 0
2.9162788 0.14993107 -0.76321155 0
2.9162788 0.54527199 -1.1205773 0
2.9162788 0.82026076 0.015350819 0
2.9162788 0.64905554 -0.67529148 0
2.9162788 0.98735893 0.40654993 0
2.9162788 0.51440471 -0.31091475 0
2.9162788 0.76581573 -0.54151303 0
2.9162788 -0.7493791 -0.84670401 0
2.9162788 0.27120912 -0.5992111 0
2.9162788 0.90749431 0.036375761 0
2.9162788 0.42274052 -1.0709271 0
2.9162788 -0.74396193 -0.95178485 0
2.9162788 0.9680686 -1.2521735 0
2.9162788 -0.33415675 -0.90130556 0
2.9162788 -0.60468054 -0.80847037 0
2.9162788 1.2301507 -0.27981424 0
2.9162788 0.27050543 -0.6272217 0
2.9162788 0.45904428 -0.41000533 0
2.9162788 1.4681612 -0.13580656 0
2.9162788 1.0648345 -0.062430143 0
2.9162788 1.2530538 0.4285326 0
2.9162788 -0.6810751 -1.2792543 0
2.9162788 0.67726886 -0.14411354 0
2.9162788 1.5083965 1.0199575 0
2.9162788 1.0278662 -1.0151546 0
2.9162788 0.052302521 -1.2829016 0
2.9162788 0.51957846 -0.22479475 0
2.9162788 1.2186463 -0.34848762 0
2.9162788 0.17105937 -0.81882608 0
2.9162788 1.159272 -1.0013824 0
2.9162788 -0.25390488 -1.1854501 0
2.9162788 1.2679158 -1.1066819 0
2.9162788 -0.78263175 -1.1637233 0
2.9162788 1.1461658 -0.45857942 0
2.9162788 0.70535421 0.028194904 0
2.9162788 1.4613655 -0.21730185 0
2.9162788 1.3653523 -0.56274253 0
2.9162788 0.32625419 -0.31608099 0
2.9162788 -0.29150891 -0.34293479 0
2.9162788 -0.56225616 -0.58290166 0
2.9162788 -0.12451673 -0.38803452 0
2.9162788 0.87502879 -1.0920485 0
2.9162788 1.2811091 -1.0050271 0
2.9162788 1.0970073 -0.71934801 0
2.9162788 0.034457922 -0.43174273 0
2.9162788 0.8854804 0.39971852 0
2.9162788 -0.73684263 -0.84966451 0
2.9162788 0.5788641 0.44890773 0
2.9162788 1.4215848 -0.63492978 0
2.9162788 0.61822796 -0.42368424 0
2.9162788 -1.091749 -1.1169659 0
2.9162788 1.4873086 1.2338917 0
2.9162788 -0.24056971 -0.25400472 0
2.9162788 -0.59160244 -1.1109215 0
2.9162788 0.6309945 0.069579244 0
2.9162788 0.8816365 -0.31666732 0
2.9162788 0.54886806 0.3423326 0
2.9162788 0.49130762 0.20543432 0
2.9162788 1.0962999 -0.61375064 0
2.9162788 -0.46032345 -1.078379 0
2.9162788 1.2336782 0.97998786 0
2.9162788 0.82372969 -1.2346448 0
2.9162788 -1.1580524 -1.1168997 0
2.9162788 -0.19519903 -1.2771628 0
2.9162788 0.031564951 -0.92353499 0
2.9162788 -0.39916986 -0.86339033 0
2.9162788 0.55980134 -1.2110349 0
2.9162788 1.2221763 0.88064146 0
2.9162788 0.14502454 0.038112402 0
2.9162788 0.17386484 -0.23974645 0
2.9162788 0.99358046 -0.36139268 0
2.9162788 0.95193619 -0.51026702 0
2.9162788 0.5822469 0.26372635 0
2.9162788 1.3239684 -0.97702807 0
2.9162788 1.3619963 0.68187928 0
2.9162788 0.2081269 -0.69050014 0
2.9162788 1.0858001 -0.9442234 0
2.9162788 0.62472272 -0.57795596 0
2.9162788 1.1644931 -0.3156184 0
2.9162788 0.81760293 0.18857491 0
2.9162788 1.2005002 0.83571601 0
2.9162788 -0.4438197 -1.0443466 0
2.9162788 0.34364891 0.28204405 0
2.9162788 1.2187772 0.841676 0
2.9162788 0.51145613 -1.2330629 0
2.9162788 -0.073232472 -0.59906107 0
2.9162788 -0.060612574 -1.2055855 0
2.9162788 -0.32346591 -1.190336 0
2.9162788 1.3748238 -0.45519179 0
2.9162788 0.034553468 -0.50242549 0
2.9162788 0.89022183 0.69714904 0
2.9162788 0.49197394 -0.4207269 0
2.9162788 0.035152733 -0.7618413 0
2.9162788 -0.90998173 -1.0139796 0
2.9162788 0.28328604 -0.98696023 0
2.9162788 -0.8724823 -1.1531837 0
2.9162788 1.0438658 -0.35661626 0
2.9162788 -0.84887671 -1.2078935 0
2.9162788 1.1857377 0.37144732 0
2.9162788 1.3612897 -0.44244564 0
2.9162788 0.84978133 0.035770893 0
2.9162788 -0.32653517 -0.95572919 0
2.9162788 0.3551538 -0.5105533 0
2.9162788 1.1965572 -0.640854 0
2.9162788 0.23612368 -0.76831794 0
2.9162788 0.4310627 0.24487495 0
2.9162788 1.2996848 0.60774887 0
2.9162788 -0.8370294 -0.936993 0
2.9162788 0.8057484 -0.12702966 0
2.9162788 -0.3156544 -0.5729022 0
2.9162788 0.18067527 0.097098589 0
2.9162788 1.4153904 -1.2565181 0
2.9162788 1.1745803 0.73688722 0
2.9162788 0.060257673 -0.75471133 0
2.9162788 1.1255051 0.4484427 0
2.9162788 1.0963818 -0.51906168 0
2.9162788 -0.71245801 -1.1013558 0
2.9162788 -0.1630744 -0.87366998 0
2.9162788 0.20840108 0.040320516 0
2.9162788 1.2310854 -0.44388688 0
2.9162788 0.17591938 -0.87612891 0
2.9162788 1.4798285 1.0883038 0
2.9162788 -0.32248974 -0.42730856 0
2.9162788 0.015809 -0.99409294 0
2.9162788 0.25526196 -0.40970826 0
2.9162788 0.21259129 -0.091057897 0
2.9162788 1.4871624 0.20156825 0
2.9162788 0.71031618 0.25871873 0
2.9162788 0.39039308 -1.2589988 0
2.9162788 0.97414821 -0.78638613 0
2.9162788 0.46687853 -0.65047503 0
2.9162788 -1.1422482 -1.1849201 0
2.9162788 1.263954 0.16372776 0
2.9162788 1.3327707 0.7151444 0
2.9162788 0.75068498 -0.45407706 0
2.9162788 0.25954837 -0.39052951 0
2.9162788 0.22636068 -0.76504034 0
2.9162788 0.93920672 0.50244236 0
2.9162788 0.41969973 -0.19807589 0
2.9162788 0.26860189 -0.14714396 0
2.9162788 -0.11094052 -0.72899151 0
2.9162788 -0.56864864 -1.2450444 0
2.9162788 1.4636492 1.1607058 0
2.9162788 1.4470634 -0.2533617 0
2.9162788 1.2809978 -0.67038506 0
2.9162788 0.4616974 -1.0506546 0
2.9162788 0.95473665 0.33503509 0
2.9162788 0.85568416 -0.96670818 0
2.9162788 0.21235317 -0.74236763 0
2.9162788 1.4535791 0.71135759 0
2.9162788 1.3103039 -1.1077754 0
2.9162788 1.2360728 0.20373869 0
2.9162788 -1.2782029 -1.2643869 0
2.9162788 1.4490796 -0.37000275 0
2.9162788 0.2401762 -0.13779342 0
2.9162788 1.3697355 0.96428847 0
2.9162788 0.85666287 0.58850753 0
2.9162788 0.30647343 -0.30220026 0
2.9162788 -1.2692924 -1.2168537 0
2.9162788 0.98916239 -1.0759311 0
2.9162788 1.1723635 -1.0000883 0
2.9162788 0.72684956 -0.82126927 0
2.9162788 -0.15165555 -0.35416454 0
2.9162788 -0.11951143 -0.80307019 0
2.9162788 1.2092345 0.57734835 0
2.9162788 1.1720364 -0.93436116 0
2.9162788 -0.94151592 -0.88545412 0
2.9162788 1.3143399 0.35512602 0
2.9162788 1.2840351 -0.82506037 0
2.9162788 1.1193001 -0.21743298 0
2.9162788 1.294606 0.36550844 0
2.9162788 1.3775231 0.077712059 0
2.9162788 -0.45145655 -0.39321756 0
2.9162788 0.61126912 -0.39921433 0
2.9162788 -0.53247583 -0.5250349 0
2.9162788 0.49864173 0.2055788 0
2.9162788 0.21553755 -0.44309127 0
2.9162788 1.481788 -0.24856591 0
2.9162788 -0.61312085 -0.81519431 0
2.9162788 0.94862974 0.20557308 0
2.9162788 0.47810817 -0.21932817 0
2.9162788 -1.1711642 -1.1943774 0
2.9162788 1.2385385 -0.017694473 0
2.9162788 0.88940144 -0.50119102 0
2.9162788 0.77127135 0.35666502 0
2.9162788 0.72238857 -0.01646626 0
2.9162788 -0.24522537 -0.72592074 0
2.9162788 -0.50986218 -1.1100727 0
2.9162788 1.3183562 0.7407074 0
2.9162788 1.3861039 -0.922405 0
2.9162788 1.1939878 -0.90950292 0
2.9162788 -0.11302185 -0.67249304 0
2.9162788 0.31595942 -1.0873952 0
2.9162788 1.2917508 -1.1931363 0
2.9162788 0.8014015 -1.0299094 0
2.9162788 0.76196223 -0.64363027 0
2.9162788 1.0065658 0.1507926 0
2.9162788 -0.75306851 -0.81947786 0
2.9162788 1.1389689 -0.97794294 0
2.9162788 0.77427572 -0.15928745 0
2.9162788 -0.51976085 -0.58733177 0
2.9162788 0.70843828 -0.31194603 0
2.9162788 1.4761542 0.77506113 0
2.9162788 1.4401002 -0.57344252 0
2.9162788 0.10091484 -0.12031937 0
2.9162788 0.53710753 -0.84904242 0
2.9162788 -0.0041220188 -1.018142 0
2.9162788 0.046508193 -0.27103102 0
2.9162788 1.1309892 0.20110583 0
2.9162788 1.4374485 -0.27041173 0
2.9162788 0.056036592 -0.54060608 0
2.9162788 -0.72221059 -0.72410023 0
2.9162788 -0.19045877 -0.9844566 0
2.9162788 1.3302296 0.38474703 0
2.9162788 0.12481135 -0.57634091 0
2.9162788 1.3736447 0.45553493 0
2.9162788 0.91122711 0.39322257 0
2.9162788 1.4952369 0.77250862 0
2.9162788 1.4285096 -0.12556541 0
2.9162788 -0.64729285 -0.63139033 0
2.9162788 1.4183886 0.49860692 0
2.9162788 1.3615677 1.1430974 0
2.9162788 0.013713915 -1.2582386 0
2.9162788 -0.46312636 -0.55184668 0
2.9162788 0.091808736 -0.57464242 0
2.9162788 0.76459384 -0.34405315 0
2.9162788 -0.23344937 -1.2600861 0
2.9162788 1.2999356 0.40047324 0
2.9162788 0.83685076 -0.55346727 0
2.9162788 1.1186453 -1.1018384 0
2.9162788 0.37925971 -0.073256493 0
2.9162788 1.1612225 0.45620191 0
2.9162788 0.50916892 -0.00084459782 0
2.9162788 -0.73369068 -0.70271766 0
2.9162788 0.906093 0.33335555 0
2.9162788 1.1000267 0.9150281 0
2.9162788 -0.19428015 -0.27358198 0
2.9162788 0.73857307 -1.1550245 0
2.9162788 1.0944884 -0.23678815 0
2.9162788 0.94267356 -0.35827661 0
2.9162788 -0.68807626 -1.0174401 0
2.9162788 -0.23300195 -0.77085036 0
2.9162788 0.77183777 0.14974701 0
2.9162788 0.853791 -0.26586616 0
2.9162788 -0.41720003 -0.76926047 0
2.9162788 0.48158789 -0.43444091 0
2.9162788 -0.32925564 -0.44702387 0
2.9162788 0.32299155 -0.2103411 0
2.9162788 0.51825356 -0.76776707 0
2.9162788 0.071956396 -0.034107804 0
2.9162788 1.037674 -0.58991814 0
2.9162788 1.122927 -0.58495152 0
2.9162788 0.14503473 -1.0398366 0
2.9162788 0.069762021 -1.1310792 0
2.9162788 1.1511114 0.71793103 0
2.9162788 0.63457811 0.23430526 0
2.9162788 1.35244 -0.15540612 0
2.9162788 1.0931876 -0.5395537 0
2.9162788 1.3648981 1.1048851 0
2.9162788 0.62705827 -1.1944178 0
2.9162788 0.7895124 -0.43069881 0
2.9162788 0.46201169 -1.0992744 0
2.9162788 1.0786495 0.35440028 0
2.9162788 0.49299008 -0.24255371 0
2.9162788 1.0753781 0.84412122 0
2.9162788 0.14672801 -0.90004981 0
2.9162788 1.0450473 0.29495931 0
2.9162788 -1.1740406 -1.0656687 0
2.9162788 1.2016261 0.2308948 0
2.9162788 0.49643528 -0.56210834 0
2.9162788 0.37341654 0.044910192 0
2.9162788 1.2834989 -1.1811762 0
2.9162788 -1.2668973 -1.1847767 0
2.9162788 0.72992694 -0.24203598 0
2.9162788 0.35887969 -1.0931686 0
2.9162788 1.0489066 -0.90199703 0
2.9162788 -0.71351624 -0.78609437 0
2.9162788 -1.4563376 -1.249702 0
2.9162788 0.66547751 0.36923587 0
2.9162788 0.48840094 -0.2676717 0
2.9162788 1.0311038 -0.086139441 0
2.9162788 0.78707916 -1.1769495 0
2.9162788 -1.1190492 -1.2478763 0
2.9162788 0.58215559 0.16311252 0
2.9162788 -0.14275564 -1.2585262 0
2.9162788 0.20723736 -1.0395077 0
2.9162788 1.1908175 -1.1663901 0
2.9162788 0.94756222 0.44548559 0
2.9162788 0.83857125 -0.78214341 0
2.9162788 0.36957219 -1.1092147 0
2.9162788 -0.28202772 -0.7057634 0
2.9162788 0.47751868 0.30578697 0
2.9162788 1.3742198 -0.94181663 0
2.9162788 0.83613849 -0.35535401 0
2.9162788 1.2837377 0.24859285 0
2.9162788 0.39581811 0.1520201 0
2.9162788 -0.041804075 -0.28641891 0
2.9162788 0.29920417 -0.9530648 0
2.9162788 -0.0033391565 -1.1549171 0
2.9162788 0.79846591 -0.89900476 0
2.9162788 0.55211282 0.37860513 0
2.9162788 -0.13443494 -0.36203319 0
2.9162788 0.81925786 -0.077292562 0
2.9162788 0.40955734 -1.2564162 0
2.9162788 0.18159133 -0.88716304 0
2.9162788 1.1135448 -0.18213129 0
2.9162788 0.86180389 -0.16284573 0
2.9162788 -0.11118072 -0.7537595 0
2.9162788 0.19524455 -0.63877589 0
2.9162788 1.3901132 0.19582093 0
2.9162788 1.169356 0.6167202 0
2.9162788 -0.26518703 -1.2086189 0
2.9162788 1.2112882 -0.84703708 0
2.9162788 1.4292727 0.99682379 0
2.9162788 -0.48734444 -0.64749306 0
2.9162788 0.8917259 -0.70524687 0
2.9162788 0.5099622 -0.37325203 0
2.9162788 0.57862794 -0.13087714 0
2.9162788 0.72276419 -0.6143086 0
2.9162788 -0.63524699 -0.89506316 0
2.9162788 -0.15045929 -1.1337063 0
2.9162788 -1.0667595 -1.2476287 0
2.9162788 0.89011252 0.59140837 0
2.9162788 0.56823599 0.24522686 0
2.9162788 -0.6814698 -0.90296859 0
2.9162788 0.7798996 -0.56689572 0
2.9162788 1.1716096 -0.057269692 0
2.9162788 0.90563774 0.13206625 0
2.9162788 0.91418326 0.15061951 0
2.9162788 0.85563576 -0.31438881 0
2.9162788 1.4789813 -0.82627439 0
2.9162788 0.48734087 -1.2755533 0
2.9162788 -0.065387845 -0.14457297 0
2.9162788 -0.44596893 -0.7110303 0
2.9162788 1.0375618 0.58041668 0
2.9162788 1.2871213 0.11015081 0
2.9162788 1.1634741 -0.46803778 0
2.9162788 0.88212389 -0.88177216 0
2.9162788 -0.66173398 -0.63627332 0
2.9162788 -0.16104174 -0.5647282 0
2.9162788 0.086000413 -1.06777 0
2.9162788 -1.4068044 -1.2749101 0
2.9162788 1.0938058 0.16872358 0
2.9162788 0.13135052 -0.27326238 0
2.9162788 0.46938205 -0.7518633 0
2.9162788 0.90833998 -0.43427992 0
2.9162788 -0.92705196 -1.0558339 0
2.9162788 -0.77277088 -1.0497249 0
2.9162788 0.77439392 0.47010207 0
2.9162788 -1.2429816 -1.1864644 0
2.9162788 -0.16512305 -0.83438498 0
2.9162788 1.166487 0.34690082 0
2.9162788 0.36607802 0.23994815 0
2.9162788 0.016863227 -0.79510617 0
2.9162788 1.3820683 -0.017093778 0
2.9162788 0.29822284 -0.25513649 0
2.9162788 1.3692681 -0.051306725 0
2.9162788 1.0098031 -0.1756115 0
2.9162788 -0.56840539 -0.54490578 0
2.9162788 0.86198115 -1.0449833 0
2.9162788 1.1133312 -0.10860133 0
2.9162788 -1.2535176 -1.2577522 0
2.9162788 -1.2628518 -1.1261466 0
2.9162788 0.61011261 0.053965449 0
2.9162788 1.2098501 -0.50548929 0
2.9162788 0.92764044 0.40235174 0
2.9162788 1.3239403 0.5459615 0
2.9162788 1.2390794 -1.0045903 0
2.9162788 1.2653955 -1.2058482 0
2.9162788 -0.6448921 -0.9322499 0
2.9162788 -1.2789382 -1.238358 0
2.9162788 0.58169168 -0.56398916 0
2.9162788 0.23354575 -0.93246233 0
2.9162788 0.41623855 -0.5883072 0
2.9162788 0.8886826 -0.36653143 0
2.9162788 -0.90884733 -0.90250289 0
2.9162788 0.71555549 0.16407883 0
2.9162788 0.15857142 -0.48539305 0
2.9162788 0.9193176 -0.10808909 0
2.9162788 0.36536109 -0.67418927 0
2.9162788 -0.1324085 -0.83678651 0
2.9162788 1.3706186 -1.0789104 0
2.9162788 0.97740734 -1.167488 0
2.9162788 0.86604112 -0.64822227 0
2.9162788 0.93342495 -1.1746061 0
2.9162788 0.86319679 -0.58101755 0
2.9162788 1.1048355 0.82502961 0
2.9162788 1.4244082 0.37242043 0
2.9162788 -0.37649012 -0.44476193 0
2.9162788 -0.48172331 -1.2806375 0
2.9162788 0.87139964 -0.86021662 0
2.9162788 1.3594117 0.95147824 0
2.9162788 0.33799332 -0.52308768 0
2.9162788 1.2393057 0.54038894 0
2.9162788 0.85695565 0.07382679 0
2.9162788 -0.23603594 -0.31286812 0
2.9162788 0.42087609 -0.39244896 0
2.9162788 0.89847958 -0.096735954 0
2.9162788 0.20500481 0.1508857 0
2.9162788 0.99704242 0.48608553 0
2.9162788 -0.38931778 -1.2321916 0
2.9162788 0.3417128 -0.88374996 0
2.9162788 1.349879 0.17220438 0
2.9162788 1.0431379 -1.215872 0
2.9162788 -0.062836632 -1.0957612 0
2.9162788 -0.44218859 -0.94936055 0
2.9162788 0.33444685 -0.89139831 0
2.9162788 0.55870128 -0.14382148 0
2.9162788 1.2400913 0.40686619 0
2.9162788 0.094970345 -0.48572701 0
2.9162788 0.99712515 -0.89972049 0
2.9162788 0.63578093 -0.98923057 0
2.9162788 -0.0085940659 -1.0352883 0
2.9162788 -0.83953565 -1.1031679 0
2.9162788 1.5046284 -0.18432522 0
2.9162788 0.96470475 -0.16163743 0
2.9162788 1.0618848 -0.082950592 0
2.9162788 1.270568 0.81532812 0
2.9162788 -0.55766237 -0.87033379 0
2.9162788 -0.36023152 -1.2868413 0
2.9162788 0.25375515 -0.25738132 0
2.9162788 1.1291707 0.34237707 0
2.9162788 1.4261985 0.79561734 0
2.9162788 0.11201787 -0.71850431 0
2.9162788 1.4652169 1.1879795 0
2.9162788 0.29872102 -0.83511108 0
2.9162788 0.99964672 0.0019496679 0
2.9162788 1.2032553 0.64247978 0
2.9162788 0.99528795 -0.52198184 0
2.9162788 0.56069297 -0.26145828 0
2.9162788 0.1621865 -0.72984374 0
2.9162788 -0.34563676 -1.0253022 0
2.9162788 0.071160734 -0.69015449 0
2.9162788 -0.014685631 -0.86576074 0
2.9162788 -1.0965168 -1.1083596 0
2.9162788 0.42512012 0.21285009 0
2.9162788 0.39148223 -0.73297817 0
2.9162788 0.023089588 -0.75947046 0
2.9162788 0.90407395 -0.76693535 0
2.9162788 -0.60769117 -0.83249819 0
2.9162788 0.30670172 -0.82357371 0
2.9162788 0.7763496 -1.163904 0
2.9162788 1.0778137 0.068044424 0
2.9162788 0.13978553 -0.28029919 0
2.9162788 -1.025456 -0.97274995 0
2.9162788 0.61844969 -1.0293579 0
2.9162788 -0.43337891 -1.0747808 0
2.9162788 -1.3351401 -1.1747539 0
2.9162788 0.99506092 0.50296223 0
2.9162788 0.1362685 -0.92544711 0
2.9162788 -0.58400041 -0.67290807 0
2.9162788 -0.94255537 -1.0968642 0
2.9162788 1.4374228 -0.81715864 0
2.9162788 -0.50600952 -0.64466166 0
2.9162788 -0.82042575 -1.1739323 0
2.9162788 -0.75074112 -1.2619684 0
2.9162788 1.1034534 -0.40487295 0
2.9162788 1.4229507 0.83824849 0
2.9162788 -0.5469985 -0.63606036 0
2.9162788 0.84670806 0.2035923 0
2.9162788 0.51732486 -0.6730063 0
2.9162788 0.038074672 -0.56274599 0
2.9162788 -0.66886687 -0.94764566 0
2.9162788 -0.17053831 -0.29446298 0
2.9162788 0.18802249 -0.43876368 0
2.9162788 1.5111589 0.69761848 0
2.9162788 0.21028268 -1.1231899 0
2.9162788 1.2898282 0.11441517 0
2.9162788 0.93683851 -0.29027903 0
2.9162788 0.48912084 -1.2389566 0
2.9162788 1.4215941 0.82895279 0
2.9162788 0.94838202 -0.38352811 0
2.9162788 0.58482081 -1.1803321 0
2.9162788 1.0137203 0.064659357 0
2.9162788 1.2076784 0.16806924 0
2.9162788 0.19427526 0.06708622 0
2.9162788 -0.30678678 -0.36592144 0
2.9162788 0.96664202 -0.18457317 0
2.9162788 -0.76929468 -1.1196632 0
2.9162788 1.0150676 0.060434461 0
2.9162788 0.090264976 -0.85582113 0
2.9162788 0.99000621 0.83754444 0
2.9162788 -0.50184631 -0.53747249 0
2.9162788 0.56136739 -0.87613475 0
2.9162788 0.65071595 0.45050919 0
2.9162788 1.471976 -0.78028929 0
2.9162788 -0.63607347 -1.1076494 0
2.9162788 -1.1333216 -1.1455545 0
2.9162788 0.27791458 -0.65457422 0
2.9162788 0.7519415 0.021824241 0
2.9162788 0.3278234 -0.18418539 0
2.9162788 0.33064723 0.12687612 0
2.9162788 1.1957033 -1.0786791 0
2.9162788 1.4590343 -0.7769655 0
2.9162788 0.74174565 -1.0593666 0
2.9162788 0.89448535 0.62430024 0
2.9162788 -0.015757322 -0.18282652 0
2.9162788 -0.41452396 -0.3635906 0
2.9162788 -1.2007387 -1.1422579 0
2.9162788 -0.013549566 -0.58063102 0
2.9162788 1.4113359 0.32992792 0
2.9162788 1.1100054 -0.5285328 0
2.9162788 0.40761408 -1.2544115 0
2.9162788 1.3941908 0.27018046 0
2.9162788 0.92524046 0.045161486 0
2.9162788 0.70267844 -0.83668649 0
2.9162788 0.62813073 -0.47967374 0
2.9162788 -0.28612506 -0.38022399 0
2.9162788 0.79675269 0.37597585 0
2.9162788 -0.79052234 -0.92201179 0
2.9162788 0.20643187 -0.57890278 0
2.9162788 0.16005854 -1.0954112 0
2.9162788 0.60794663 0.36674845 0
2.9162788 0.68163288 -1.0251789 0
2.9162788 0.45423687 -0.70126152 0
2.9162788 -0.70046353 -0.63827276 0
2.9162788 1.0303653 -0.033172607 0
2.9162788 1.4970397 0.047544122 0
2.9162788 1.3096215 -0.20170426 0
2.9162788 1.4406698 -0.58593136 0
2.9162788 0.92649114 0.77819324 0
2.9162788 -0.58655638 -1.1938546 0
2.9162788 1.1143663 -0.25010014 0
2.9162788 0.31121185 -1.075328 0
2.9162788 0.68245625 0.42085862 0
2.9162788 -0.76239812 -0.76465082 0
2.9162788 -1.1064725 -1.2500361 0
2.9162788 1.0525379 -0.24032903 0
2.9162788 1.1353565 -0.99304259 0
2.9162788 1.4961616 0.74859619 0
2.9162788 0.49883103 -0.35299498 0
2.9162788 0.39379561 0.19850564 0
2.9162788 0.047126833 -1.2379812 0
2.9162788 0.59904838 -0.48271108 0
2.9162788 0.38405207 -0.89307588 0
2.9162788 1.3080883 -0.31903553 0
2.9162788 0.096774578 -0.099216819 0
2.9162788 0.85774422 -0.60805571 0
2.9162788 0.79480451 -0.69827288 0
2.9162788 0.51827145 -1.211555 0
2.9162788 0.36818269 -1.0646535 0
2.9162788 0.91568261 -0.61341625 0
2.9162788 1.270324 0.035364389 0
2.9162788 0.61396766 0.48852003 0
2.9162788 1.4385555 0.90493751 0
2.9162788 0.21016157 -0.83927506 0
2.9162788 0.80736482 0.46048391 0
2.9162788 1.509819 -0.71435279 0
2.9162788 1.5008889 -0.63875568 0
2.9162788 0.67228544 0.25765443 0
2.9162788 0.60129058 -1.0385551 0
2.9162788 0.089309812 -0.28541696 0
2.9162788 0.28389668 -0.048055053 0
2.9162788 0.094345093 -0.84789908 0
2.9162788 -1.2049167 -1.0937614 0
2.9162788 0.78567505 -0.30217725 0
2.9162788 0.28824162 -0.60260946 0
2.9162788 1.2194148 -0.98125994 0
2.9162788 1.1729102 -1.0950936 0
2.9162788 1.2421706 -0.21354377 0
2.9162788 -0.19816124 -0.30981183 0
2.9162788 1.2605896 0.31097627 0
2.9162788 1.3066014 -1.0818337 0
2.9162788 0.46828783 -0.6715681 0
2.9162788 -0.18275177 -0.68484104 0
2.9162788 -0.95557791 -0.82774079 0
2.9162788 0.26324314 -0.36355752 0
2.9162788 -0.2180402 -1.0262142 0
2.9162788 1.2550168 0.68494236 0
2.9162788 -0.25443894 -0.59899926 0
2.9162788 -0.23197651 -0.59938347 0
2.9162788 0.36570096 -0.47508246 0
2.9162788 -0.50237012 -0.9527148 0
2.9162788 -0.029148459 -0.084206462 0
2.9162788 0.57728183 -1.0900881 0
2.9162788 0.53872705 0.16782725 0
2.9162788 -1.192454 -1.093785 0
2.9162788 -0.23375118 -0.25633478 0
2.9162788 1.0089121 -0.022699475 0
2.9162788 1.4712049 -0.59546643 0
2.9162788 0.19182408 -0.67663723 0
2.9162788 1.0813925 -0.60846764 0
2.9162788 0.93209851 -0.1072408 0
2.9162788 0.50998694 -0.65771222 0
2.9162788 0.95736092 0.079664946 0
2.9162788 -0.56033254 -0.68227023 0
2.9162788 0.041828275 -0.78756887 0
2.9162788 -0.43093094 -1.0177245 0
2.9162788 1.2996647 -0.90591836 0
2.9162788 0.34764397 0.11455488 0
2.9162788 1.2795523 -1.1189882 0
2.9162788 1.0224659 -0.63793039 0
2.9162788 -0.10256928 -0.82983863 0
2.9162788 1.0372324 0.46061468 0
2.9162788 1.2876679 0.76457191 0
2.9162788 -0.13965648 -0.48191196 0
2.9162788 0.19810787 -1.1429338 0
2.9162788 -0.85872579 -0.92673445 0
2.9162788 1.2942564 0.33078146 0
2.9162788 0.92415392 0.75794363 0
2.9162788 0.40564147 -1.2852895 0
2.9162788 -0.5608288 -0.92733753 0
2.9162788 0.87558275 -0.65175408 0
2.9162788 0.91664767 -1.1088846 0
2.9162788 -0.022298984 -1.2181818 0
2.9162788 0.34570575 0.25618505 0
2.9162788 0.67153287 -0.78238922 0
2.9162788 0.57126826 -0.18296242 0
2.9162788 -0.6632815 -0.95341223 0
2.9162788 -0.70519716 -1.2212299 0
2.9162788 -1.4452564 -1.2883009 0
2.9162788 -0.96175969 -1.1646867 0
2.9162788 1.2557818 -0.31959093 0
2.9162788 -0.74224234 -0.70932335 0
2.9162788 -0.69975883 -0.63479698 0
2.9162788 -0.022960305 -0.09792769 0
2.9162788 0.23427093 -0.36028272 0
2.9162788 1.3885618 0.9508388 0
2.9162788 0.51747966 0.2018714 0
2.9162788 -0.47381753 -0.62873739 0
2.9162788 1.3155147 0.85613918 0
2.9162788 0.48228014 0.036110282 0
2.9162788 -0.38295186 -1.1552699 0
2.9162788 -0.28526682 -0.51627702 0
2.9162788 1.1953619 -0.77269065 0
2.9162788 1.4279773 -0.050610304 0
2.9162788 0.17789671 -0.92899895 0
2.9162788 1.0674157 -0.03105092 0
2.9162788 0.73939395 -1.2553916 0
2.9162788 0.30442458 -0.25649512 0
2.9162788 1.1890202 0.16907954 0
2.9162788 -0.22071278 -0.75088209 0
2.9162788 1.3817807 -0.12698925 0
2.9162788 1.1545393 0.18673038 0
2.9162788 1.1590962 0.36764562 0
2.9162788 1.461254 -1.2654153 0
2.9162788 1.1364201 -1.2299259 0
2.9162788 1.408857 -1.0137384 0
2.9162788 -0.37782604 -0.59364009 0
2.9162788 -0.23424041 -0.38437313 0
2.9162788 1.3830552 -0.062782168 0
2.9162788 0.81336832 0.49213338 0
2.9162788 1.3284937 -0.79067802 0
2.9162788 -0.46610042 -1.247137 0
2.9162788 0.95545721 0.11916101 0
2.9162788 1.0930654 0.11740673 0
2.9162788 1.3394649 0.37641978 0
2.9162788 0.95432854 0.64890933 0
2.9162788 0.13725519 -0.33647668 0
2.9162788 0.076675057 0.013439655 0
2.9162788 -0.085311502 -0.98596209 0
2.9162788 -0.071534187 -0.92545378 0
2.9162788 1.0111933 -1.0697324 0
2.9162788 0.025530815 -0.42871368 0
2.9162788 0.0047303438 -0.200032 0
2.9162788 0.3454262 -0.07827127 0
2.9162788 -0.52110869 -0.65490061 0
2.9162788 0.25339851 -1.2625986 0
2.9162788 0.11096823 -0.39010733 0
2.9162788 0.92196739 -0.54502976 0
2.9162788 0.36299777 -0.096231222 0
2.9162788 -0.37406534 -0.60472542 0
2.9162788 -0.83934921 -1.2411628 0
2.9162788 1.463039 -0.95440626 0
2.9162788 -0.20856553 -0.53248882 0
2.9162788 0.24619085 -0.38043487 0
2.9162788 1.4300468 0.69790983 0
2.9162788 0.52058077 -0.1498276 0
2.9162788 0.11243606 -0.15186203 0
2.9162788 1.2908031 0.17946887 0
2.9162788 0.82571667 -1.2865651 0
2.9162788 0.4408114 -0.30889446 0
2.9162788 0.76017761 0.23203051 0
2.9162788 0.57194811 -0.79633939 0
2.9162788 0.041447699 -1.270247 0
2.9162788 0.64688802 0.31357765 0
2.9162788 0.30138218 -0.27297807 0
2.9162788 1.3730825 -0.37574947 0
2.9162788 0.61257255 -0.63245821 0
2.9162788 -0.41563648 -0.6975283 0
2.9162788 0.082939029 -0.79873955 0
2.9162788 1.4094616 -1.2382089 0
2.9162788 1.1727396 -1.1399493 0
2.9162788 1.4032116 -0.87005758 0
2.9162788 -0.94412661 -1.1743637 0
2.9162788 0.99805593 -0.35459411 0
2.9162788 0.17262495 -0.51917785 0
2.9162788 1.2669597 0.51349616 0
2.9162788 1.420651 0.99713254 0
2.9162788 0.56062001 -0.90941924 0
2.9162788 -1.2414895 -1.1638123 0
2.9162788 0.99406481 -0.87030387 0
2.9162788 0.35561067 -0.30955166 0
2.9162788 1.2011963 0.23578978 0
2.9162788 -1.2467867 -1.2253828 0
2.9162788 0.53256309 -0.17772591 0
2.9162788 -0.48833269 -0.51968664 0
2.9162788 0.011888623 -0.40086526 0
2.9162788 0.063607335 -0.5466122 0
2.9162788 -0.10032368 -0.89097911 0
2.9162788 -0.44476041 -0.95802855 0
2.9162788 0.93687516 -0.97202319 0
2.9162788 1.0881969 -0.21888494 0
2.9162788 0.52300429 -0.98113823 0
2.9162788 1.1218915 -1.2750297 0
2.9162788 1.4958763 1.0867341 0
2.9162788 0.89998448 0.6171968 0
2.9162788 0.96054506 -0.6961711 0
2.9162788 0.31581318 -0.77396864 0
2.9162788 0.77160949 -0.7186718 0
2.9162788 0.98257709 -0.31600618 0
2.9162788 1.3867575 0.86306357 0
2.9162788 -0.46844712 -1.0499326 0
2.9162788 -1.0238091 -0.98172921 0
2.9162788 -0.66732973 -0.798545 0
2.9162788 -0.5531981 -0.95992506 0
2.9162788 0.71786427 -0.76718903 0
2.9162788 0.91339076 0.32041538 0
2.9162788 1.3887837 0.99660802 0
2.9162788 0.72905409 0.53501952 0
2.9162788 1.4289167 0.63398504 0
2.9162788 0.81203026 -0.87425601 0
2.9162788 0.78719258 -0.5117355 0
2.9162788 0.5266915 -0.01069057 0
2.9162788 1.2295601 1.0229845 0
2.9162788 -0.059688807 -0.77377826 0
2.9162788 0.88422394 0.58141375 0
2.9162788 1.0010349 -1.1041474 0
2.9162788 1.2454529 -0.60473835 0
2.9162788 1.004662 -1.1743286 0
2.9162788 1.2459964 0.92315102 0
2.9162788 -1.0485986 -1.1093122 0
2.9162788 -0.10464585 -0.34012371 0
2.9162788 -0.68037152 -0.72805262 0
2.9162788 -0.39275643 -0.98041147 0
2.9162788 -0.49976531 -0.98415434 0
2.9162788 1.2310534 0.92277384 0
2.9162788 0.81280553 -0.68195868 0
2.9162788 0.58137095 -0.60510129 0
2.9162788 1.1826993 -0.22368228 0
2.9162788 -0.51689982 -0.60950989 0
2.9162788 1.2528336 -0.60200435 0
2.9162788 0.66037154 0.5434587 0
2.9162788 0.70444894 -0.03566885 0
2.9162788 -0.82795101 -1.0822464 0
2.9162788 0.63949025 0.20609546 0
2.9162788 1.3987843 -0.64390445 0
2.9162788 -0.00037777424 -0.25398707 0
2.9162788 0.05084002 -0.68081313 0
2.9162788 0.84927106 -0.24469936 0
2.9162788 -0.39674234 -0.75082362 0
2.9162788 -0.25138652 -1.0632073 0
2.9162788 0.88656604 -0.19622362 0
2.9162788 1.3232913 1.0716388 0
2.9162788 -0.48452625 -1.1344554 0
2.9162788 -0.60366762 -0.92585939 0
2.9162788 1.0780241 0.87448835 0
2.9162788 0.60339135 -0.28364754 0
2.9162788 -0.68139899 -0.7327705 0
2.9162788 1.2188326 0.75156593 0
2.9162788 1.4858587 -0.36902076 0
2.9162788 1.0878688 0.65633774 0
2.9162788 -0.52648151 -0.788643 0
2.9162788 1.2094002 -0.40298915 0
2.9162788 0.88419592 -0.054661036 0
2.9162788 -0.65748876 -1.1927572 0
2.9162788 0.39030588 -0.042413592 0
2.9162788 0.0075588599 -1.2234824 0
2.9162788 1.3371511 -1.0351486 0
2.9162788 0.70770943 -1.0024726 0
2.9162788 -0.18386999 -1.2064098 0
2.9162788 0.94325137 -0.72756714 0
2.9162788 0.21756351 0.058411598 0
2.9162788 1.1614293 -0.9840461 0
2.9162788 1.1827471 -0.29895812 0
2.9162788 1.074447 -0.97812533 0
2.9162788 0.42060852 -0.53887606 0
2.9162788 1.0380999 -0.73320985 0
2.9162788 0.98267615 0.30371284 0
2.9162788 1.0898459 -0.19706583 0
2.9162788 0.55456817 -0.28818011 0
2.9162788 0.7921679 0.45532393 0
2.9162788 0.40770227 -0.55282319 0
2.9162788 -0.66424507 -0.94776368 0
2.9162788 -0.33199799 -0.84833091 0
2.9162788 -0.27718288 -0.45446533 0
2.9162788 -0.10569829 -0.86205852 0
2.9162788 -0.27663714 -0.75242865 0
2.9162788 1.1560279 -1.1502967 0
2.9162788 1.1842616 -0.55739009 0
2.9162788 0.084155738 -0.56410277 0
2.9162788 1.4197271 0.96605778 0
2.9162788 0.71851319 -0.21126771 0
2.9162788 1.1775682 0.7479279 0
2.9162788 1.0560286 -0.98608571 0
2.9162788 -0.43519866 -1.2346605 0
2.9162788 0.31501853 -0.69531322 0
2.9162788 0.70096761 -1.2272792 0
2.9162788 1.0104997 -0.9906351 0
2.9162788 0.17491901 -0.032344341 0
2.9162788 0.81486249 0.488868 0
2.9162788 0.49898428 -0.44347906 0
2.9162788 1.0964377 0.094822526 0
2.9162788 -0.057908416 -0.55363101 0
2.9162788 -0.42095011 -0.74987686 0
2.9162788 0.83015853 -0.76533735 0
2.9162788 0.62309253 -1.1847097 0
2.9162788 -0.679757 -1.2531587 0
2.9162788 0.34904611 0.086441398 0
2.9162788 1.0834688 -0.49038517 0
2.9162788 1.4869192 0.72402382 0
2.9162788 -1.4692854 -1.2839694 0
2.9162788 0.69416785 0.2082324 0
2.9162788 -0.94964975 -1.1163222 0
2.9162788 -1.0713282 -1.1992383 0
2.9162788 0.55243886 -1.0387094 0
2.9162788 -0.34755248 -0.70142961 0
2.9162788 0.79589111 0.068130016 0
2.9162788 1.1136401 0.90304565 0
2.9162788 0.82371771 0.34734643 0
2.9162788 0.47147191 0.09738791 0
2.9162788 0.25849462 -0.33067483 0
2.9162788 1.4756262 -0.077634692 0
2.9162788 0.44929484 -1.009872 0
2.9162788 0.77953231 -0.061284304 0
2.9162788 -0.078933775 -0.49694932 0
2.9162788 0.92768693 -0.20362926 0
2.9162788 0.59084511 -1.1789794 0
2.9162788 1.4560988 -1.0769575 0
2.9162788 0.37230635 0.14772081 0
2.9162788 1.0833004 -0.81880867 0
2.9162788 0.082969189 -0.28894758 0
2.9162788 0.74557137 0.071614981 0
2.9162788 1.2193673 0.46648884 0
2.9162788 0.99710965 -0.31543547 0
2.9162788 0.60812449 0.40272391 0
2.9162788 0.48185194 0.33363092 0
2.9162788 1.1529157 0.20285058 0
2.9162788 -0.83347094 -1.1755894 0
2.9162788 0.24811667 -0.65638006 0
2.9162788 1.1641507 -0.63888884 0
2.9162788 -1.2273144 -1.2879578 0
2.9162788 1.4829688 0.71358061 0
2.9162788 -0.55054748 -0.9628278 0
2.9162788 -0.52294236 -0.62732971 0
2.9162788 0.98326087 0.28179216 0
2.9162788 1.0002755 0.51158559 0
2.9162788 -0.42624354 -0.52018875 0
2.9162788 1.49195 0.59600663 0
2.9162788 0.17496827 -0.86457932 0
2.9162788 0.092965126 -0.16346622 0
2.9162788 1.000313 -0.19952762 0
2.9162788 0.92776185 0.30194592 0
2.9162788 -0.017697692 -0.47248417 0
2.9162788 0.97702372 -0.24870682 0
2.9162788 1.1744615 -0.03941226 0
2.9162788 1.0827252 -0.83434093 0
2.9162788 1.3414826 0.084289551 0
2.9162788 1.2568913 0.95672655 0
2.9162788 -1.0206928 -1.2456374 0
2.9162788 1.4423914 0.71412969 0
2.9162788 -0.68815231 -0.93347526 0
2.9162788 0.4287836 -0.98876524 0
2.9162788 -0.54818249 -0.78399068 0
2.9162788 1.1011082 -1.0432919 0
2.9162788 0.048061192 -0.52306879 0
2.9162788 1.1459796 -0.78767818 0
2.9162788 0.68334973 0.30367756 0
2.9162788 -0.40339917 -0.52551031 0
2.9162788 1.3177519 -0.47914863 0
2.9162788 0.091085702 -1.0992731 0
2.9162788 0.98847908 0.24720716 0
2.9162788 -0.34771672 -0.91212147 0
2.9162788 1.0527606 -0.66067696 0
2.9162788 -0.17352641 -0.54347748 0
2.9162788 1.4490862 -0.20761383 0
2.9162788 -0.51156175 -1.0770928 0
2.9162788 0.65197629 -1.0219679 0
2.9162788 -0.86648577 -0.82709825 0
2.9162788 -0.54236829 -0.74774623 0
2.9162788 1.1518502 0.38556969 0
2.9162788 1.1614447 0.89583206 0
2.9162788 0.51667958 -0.516092 0
2.9162788 -0.20748389 -0.30054104 0
2.9162788 0.89451206 0.69273603 0
2.9162788 1.1055785 -0.89825976 0
2.9162788 1.0630844 0.28335834 0
2.9162788 -0.23789126 -0.54048091 0
2.9162788 0.65951312 -0.31259513 0
2.9162788 -0.45381796 -1.1219602 0
2.9162788 0.86745048 0.40248406 0
2.9162788 1.1161747 0.22525716 0
2.9162788 0.13632447 -0.41501337 0
2.9162788 0.72522157 0.14233327 0
2.9162788 1.1964439 -0.20737755 0
2.9162788 1.1968862 -0.92724878 0
2.9162788 0.064437866 -0.2615422 0
2.9162788 1.313736 0.25338089 0
2.9162788 0.89278132 0.30786979 0
2.9162788 1.2801256 -0.58984113 0
2.9162788 0.48738587 -0.73541844 0
2.9162788 0.36392629 0.069036126 0
2.9162788 0.31964964 -0.71339446 0
2.9162788 1.1863124 0.79295588 0
2.9162788 0.55196983 -0.48286432 0
2.9162788 1.0526679 -0.57342929 0
2.9162788 1.3830109 0.20192015 0
2.9162788 -0.2791431 -1.2686781 0
2.9162788 0.41570747 0.144683 0
2.9162788 0.51133639 -0.38050801 0
2.9162788 1.3501945 0.75155044 0
2.9162788 0.49996209 -0.049008489 0
2.9162788 -0.61685741 -0.98184621 0
2.9162788 1.4227222 -0.3578589 0
2.9162788 1.3515315 0.58285642 0
2.9162788 0.32724851 -1.1221646 0
2.9162788 0.6135571 0.48093605 0
2.9162788 -1.0239831 -1.2013226 0
2.9162788 0.91912782 -0.90427423 0
2.9162788 -0.36411706 -1.149563 0
2.9162788 -0.31563151 -0.41473144 0
2.9162788 -0.63856614 -1.1288657 0
2.9162788 -0.38554585 -0.82613695 0
2.9162788 0.44261539 -0.34889948 0
2.9162788 -0.71943712 -1.2016108 0
2.9162788 1.069118 0.8561306 0
2.9162788 0.1900996 -1.0143756 0
2.9162788 1.3768814 -0.73206556 0
2.9162788 0.77671552 -0.18405437 0
2.9162788 0.91558111 0.65217102 0
2.9162788 -0.084247231 -0.58949548 0
2.9162788 0.14249659 -0.70119482 0
2.9162788 0.6658529 -0.98918772 0
2.9162788 0.6865465 -0.14926279 0
2.9162788 0.65071023 -0.17835104 0
2.9162788 1.163853 -1.1756421 0
2.9162788 -0.21490824 -0.29044414 0
2.9162788 0.57623762 0.033715606 0
2.9162788 0.71032405 -1.0781283 0
2.9162788 0.98265314 -0.18723345 0
2.9162788 1.3417683 0.017870188 0
2.9162788 0.45956939 -1.209752 0
2.9162788 -0.015737593 -1.1410285 0
2.9162788 -0.77433622 -1.2164863 0
2.9162788 0.09100759 -0.77962697 0
2.9162788 1.4721313 -0.82818788 0
2.9162788 0.39020109 -0.22586167 0
2.9162788 0.91825759 0.17241585 0
2.9162788 1.0309913 -0.71911532 0
2.9162788 0.95059824 -1.259966 0
2.9162788 0.11636297 -1.1299365 0
2.9162788 -0.07330358 -0.32387704 0
2.9162788 1.0102832 -0.65397203 0
2.9162788 0.46636751 -1.2423058 0
2.9162788 1.2677374 0.016497374 0
2.9162788 0.65394962 -0.36432087 0
2.9162788 1.1760991 -0.88596857 0
2.9162788 1.2644248 0.77221656 0
2.9162788 0.96670753 -0.62821668 0
2.9162788 0.64511371 -0.33821154 0
2.9162788 1.3287739 -1.2463018 0
2.9162788 0.80331093 0.22816217 0
2.9162788 -0.77206796 -0.9905988 0
2.9162788 -0.43472546 -1.1787628 0
2.9162788 0.61492062 -0.76381099 0
2.9162788 -1.0791175 -1.2700841 0
2.9162788 -0.76540893 -0.70071059 0
2.9162788 0.12233008 -1.1948277 0
2.9162788 0.11551905 -1.0577692 0
2.9162788 -0.4046315 -1.2424288 0
2.9162788 0.8985219 0.635077 0
2.9162788 0.57263511 -0.24632311 0
2.9162788 1.1204193 -0.28081942 0
2.9162788 -1.048978 -0.92660916 0
2.9162788 0.83918393 -0.25106394 0
2.9162788 -0.38032088 -1.1385459 0
2.9162788 -0.23647034 -0.23765385 0
2.9162788 0.30801213 -0.21452713 0
2.9162788 -0.85877657 -0.79039824 0
2.9162788 0.97257531 -0.93206716 0
2.9162788 0.98849124 -0.65141147 0
2.9162788 -0.02651906 -0.19145405 0
2.9162788 1.0658213 0.1417501 0
2.9162788 0.53078926 0.076894522 0
2.9162788 -0.70702183 -1.2142195 0
2.9162788 -1.3230866 -1.259158 0
2.9162788 1.4652919 0.011581779 0
2.9162788 0.56847978 -1.0549853 0
2.9162788 0.42230165 0.10602558 0
2.9162788 0.9356603 -0.55250835 0
2.9162788 -0.69577318 -1.2707568 0
2.9162788 1.0565774 -0.11926699 0
2.9162788 0.19690019 -1.0774426 0
2.9162788 0.98448199 0.2617451 0
2.9162788 0.049392462 -0.60603821 0
2.9162788 -0.30557841 -0.77451128 0
2.9162788 -0.36147571 -0.43272084 0
2.9162788 1.4954998 -0.57411569 0
2.9162788 0.18411744 -0.32940918 0
2.9162788 0.90420365 -1.0806766 0
2.9162788 1.1712536 0.2529496 0
2.9162788 -0.61012846 -0.54849553 0
2.9162788 1.1449455 0.44268918 0
2.9162788 -0.56892806 -0.81132823 0
2.9162788 0.14497238 -0.65791488 0
2.9162788 -0.62878025 -1.2571794 0
2.9162788 0.65285265 -1.282094 0
2.9162788 0.70254111 -0.88944042 0
2.9162788 0.21561295 -0.41362745 0
2.9162788 -0.73855376 -1.1501069 0
2.9162788 -0.90424973 -1.2177171 0
2.9162788 0.87220532 -0.84807593 0
2.9162788 1.1198063 -0.18814957 0
2.9162788 1.4912038 -0.65157092 0
2.9162788 -0.20277557 -1.027666 0
2.9162788 1.2557302 0.58634305 0
2.9162788 1.1117632 -0.60676664 0
2.9162788 0.71840584 -0.52869487 0
2.9162788 -0.053133935 -0.91355401 0
2.9162788 0.30932939 -0.13628244 0
2.9162788 0.33143836 -0.79982769 0
2.9162788 1.1737435 -0.61801457 0
2.9162788 1.1098096 0.84479046 0
2.9162788 1.4551656 -1.1299063 0
2.9162788 0.36336756 0.015563369 0
2.9162788 0.52529192 -0.26219654 0
2.9162788 -1.1599176 -1.2554238 0
2.9162788 0.5666821 -0.42300892 0
2.9162788 -0.099767566 -0.43455005 0
2.9162788 1.3350521 0.21936738 0
2.9162788 -0.53770787 -0.6898132 0
2.9162788 0.76535928 -0.21951985 0
2.9162788 1.2748821 0.5901916 0
2.9162788 0.039530754 -0.31881434 0
2.9162788 0.43887609 -0.14539409 0
2.9162788 -0.70078921 -0.85790271 0
2.9162788 1.256295 0.46686757 0
2.9162788 0.32443416 0.046600461 0
2.9162788 0.91153336 -0.41184133 0
2.9162788 -0.78142768 -0.99139786 0
2.9162788 -0.98691887 -1.2526143 0
2.9162788 -0.10553038 -0.32767308 0
2.9162788 1.3018723 0.8849659 0
2.9162788 1.3114915 -0.36556232 0
2.9162788 0.30712235 -0.18341005 0
2.9162788 -0.8716957 -1.2083893 0
2.9162788 0.88584435 -0.74561876 0
2.9162788 -0.38565752 -0.99990767 0
2.9162788 0.03404963 -0.25884652 0
2.9162788 0.47923842 -0.97491026 0
2.9162788 0.91777229 0.68863404 0
2.9162788 0.67352784 -0.58197492 0
2.9162788 0.52341348 -0.54564881 0
2.9162788 0.9875555 -0.16928613 0
2.9162788 1.3313073 0.55403435 0
2.9162788 0.8024593 -1.2036881 0
2.9162788 -1.4193751 -1.2198304 0
2.9162788 1.2443722 -0.87955809 0
2.9162788 0.54548872 -0.7078355 0
2.9162788 -0.29594117 -0.4741177 0
2.9162788 -0.14152873 -0.14393175 0
2.9162788 -0.019122586 -1.2143741 0
2.9162788 0.54011774 -1.1611458 0
2.9162788 0.58418882 -1.027575 0
2.9162788 0.87437832 -0.54348314 0
2.9162788 0.57741749 -0.69420695 0
2.9162788 -0.73089397 -1.2102596 0
2.9162788 1.4183452 0.61828542 0
2.9162788 1.3567045 1.2747464 0
2.9162788 0.7131319 1.1827306 0
2.9162788 1.2090628 1.2578385 0
2.9162788 1.1164476 1.2389027 0
2.9162788 0.14872304 0.97033954 0
2.9162788 0.21302503 0.9663502 0
2.9162788 -0.67827511 0.46219552 0
2.9162788 -0.64330506 0.49627811 0
2.9162788 -0.0043000281 0.87152267 0
2.9162788 0.064852938 0.91590691 0
2.9162788 -0.1242345 0.82151723 0
2.9162788 -0.54451084 0.57022834 0
2.9162788 -0.33368325 0.63478822 0
2.9162788 0.28205007 1.0414734 0
2.9162788 -0.31167328 0.76951319 0
2.9162788 0.29010308 1.0135938 0
2.9162788 0.27312791 1.0027436 0
2.9162788 -0.21633732 0.76895005 0
2.9162788 -0.10394204 0.7898823 0
2.9162788 -0.17791176 0.75877953 0
2.9162788 -0.30506676 0.677562 0
2.9162788 0.30283675 1.0531518 0
2.9162788 -0.62115008 0.49088198 0
2.9162788 0.20962587 1.0066376 0
2.9162788 -0.039961994 0.84802204 0
2.9162788 -0.013154179 0.89846683 0
2.9162788 -0.29299855 0.67109942 0
2.9162788 -0.31953225 0.71716988 0
2.9162788 -0.52667415 0.56463391 0
2.9162788 -0.16481307 0.74792564 0
2.9162788 0.017953366 0.87319988 0
2.9162788 -0.6464594 0.48496866 0
2.9162788 -0.76199704 0.37671024 0
2.9162788 -0.24747868 0.79243553 0
2.9162788 -0.15046774 0.84777898 0
2.9162788 0.040366113 0.87554353 0
2.9162788 -0.61660504 0.52384818 0
2.9162788 -0.22827271 0.74219114 0
2.9162788 -0.31204632 0.77529299 0
2.9162788 -0.62934875 0.47082841 0
2.9162788 -0.42629725 0.59523165 0
2.9162788 -0.42100987 0.62362158 0
2.9162788 0.11101982 0.90777129 0
2.9162788 -0.35036278 0.63444412 0
2.9162788 -0.28901261 0.73623443 0
2.9162788 -0.49080998 0.60080945 0
2.9162788 0.099188685 0.91517287 0
2.9162788 -0.26605463 0.69309115 0
2.9162788 -0.41215801 0.61383277 0
2.9162788 0.0057398975 0.89012891 0
2.9162788 -0.081970245 0.82732707 0
2.9162788 -0.29294753 0.70395094 0
2.9162788 0.26388404 1.0125784 0
2.9162788 0.20751482 0.9671573 0
2.9162788 -0.21991727 0.8349672 0
2.9162788 0.29740757 1.035947 0
2.9162788 -0.59971195 0.48316664 0
2.9162788 -0.48206872 0.57869744 0
2.9162788 0.2944712 1.0204778 0
2.9162788 -0.60674918 0.46521473 0
2.9162788 0.10734412 0.89693487 0
2.9162788 -0.80530673 0.33621168 0
2.9162788 -0.24985123 0.70681268 0
2.9162788 -0.18843764 0.78067625 0
2.9162788 -0.49310109 0.59710133 0
2.9162788 -0.49014169 0.55760527 0
2.9162788 -0.16199996 0.85945636 0
2.9162788 -0.36581665 0.73589492 0
2.9162788 -0.01113072 0.87255514 0
2.9162788 0.11276594 0.95558345 0
2.9162788 -0.60691857 0.52851802 0
2.9162788 -0.11025748 0.76945949 0
2.9162788 0.27681631 1.0303888 0
2.9162788 -0.65540439 0.43636841 0
2.9162788 -0.36499828 0.70159435 0
2.9162788 0.054826289 0.9379133 0
2.9162788 -0.73977083 0.40237105 0
2.9162788 -0.38815945 0.67269838 0
2.9162788 -0.22458661 0.72507328 0
2.9162788 -0.3568778 0.6351288 0
2.9162788 -0.24979293 0.73470283 0
2.9162788 0.079586297 0.91851604 0
2.9162788 -0.048408926 0.83415592 0
2.9162788 -0.50693613 0.54514736 0
2.9162788 -0.28051478 0.73173892 0
2.9162788 -0.68770206 0.42661351 0
2.9162788 -0.31644708 0.75006175 0
2.9162788 0.17616001 0.96705341 0
2.9162788 -0.64810115 0.46165758 0
2.9162788 0.091660753 0.93285495 0
2.9162788 -0.70072782 0.44424736 0
2.9162788 -0.38246584 0.61220515 0
2.9162788 0.041134045 0.92793351 0
2.9162788 -1.2065102 -0.27480072 0
2.9162788 -1.3717978 -0.58743668 0
2.9162788 -1.2403654 -0.31490183 0
2.9162788 -1.2495048 -0.50256896 0
2.9162788 -1.4282784 -0.86103845 0
2.9162788 -1.4177343 -0.83978343 0
2.9162788 -1.1756036 -0.25770086 0
2.9162788 -1.4449688 -0.94872051 0
2.9162788 -1.4530959 -1.0243633 0
2.9162788 -1.1034639 -0.11197436 0
2.9162788 -1.3237569 -0.74760526 0
2.9162788 -1.3201805 -0.47477663 0
2.9162788 -1.1339761 -0.25275272 0
2.9162788 -1.3116055 -0.48106831 0
2.9162788 -1.4435143 -0.92648542 0
2.9162788 -1.3184625 -0.46053863 0
2.9162788 -1.0570568 -0.039649352 0
2.9162788 -1.0971453 -0.1056584 0
2.9162788 -0.96497172 0.20284241 0
2.9162788 -1.404668 -0.81331205 0
2.9162788 -1.3300631 -0.74503279 0
2.9162788 -1.1818272 -0.21674238 0
2.9162788 -1.4437482 -0.95910019 0
2.9162788 -1.1604249 -0.26122579 0
2.9162788 -1.3032167 -0.56050885 0
2.9162788 -1.0530056 -0.037363857 0
2.9162788 -1.3120334 -0.44381034 0
2.9162788 -1.3288431 -0.74772757 0
2.9162788 -1.1879673 -0.39647621 0
2.9162788 -1.3641503 -0.52842772 0
2.9162788 -1.3097943 -0.56680667 0
2.9162788 -1.2496735 -0.32458636 0
2.9162788 -1.498369 -1.1841197 0
2.9162788 -1.3827935 -0.80323088 0
2.9162788 -1.2507164 -0.28554374 0
2.9162788 -1.0753738 -0.09004429 0
2.9162788 -1.1167942 -0.12480441 0
2.9162788 -1.2282606 -0.46974522 0
2.9162788 -1.2343353 -0.5150677 0
2.9162788 -1.2115674 -0.33821735 0
2.9162788 -1.284888 -0.47579971 0
2.9162788 -1.3613503 -0.77991366 0
2.9162788 -1.3147088 -0.57263649 0
2.9162788 -1.0280088 0.044030055 0
2.9162788 -1.3464043 -0.45722502 0
2.9162788 -1.1893466 -0.24691929 0
2.9162788 -1.132364 -0.18499246 0
2.9162788 -1.3413861 -0.5274775 0
2.9162788 -1.4351604 -0.9348349 0
2.9162788 -1.2173876 -0.27841693 0
2.9162788 -1.3730345 -0.85947597 0
2.9162788 -1.2614319 -0.52419239 0
2.9162788 -1.2371534 -0.29309368 0
2.9162788 -1.317344 -0.47875309 0
2.9162788 -1.137939 -0.26405019 0
2.9162788 -1.3154961 -0.39290619 0
2.9162788 -1.3175911 -0.62860692 0
2.9162788 -1.3273946 -0.73589671 0
2.9162788 -1.3699985 -0.79525316 0
2.9162788 -0.97807133 0.16543052 0
2.9162788 -1.3435509 -0.75684786 0
2.9162788 -1.4061363 -0.73497564 0
2.9162788 -1.2734499 -0.61563528 0
2.9162788 -1.225379 -0.48856199 0
2.9162788 -1.2767942 -0.58836603 0
2.9162788 -1.1905963 -0.22121154 0
2.9162788 -1.4063951 -0.73558581 0
2.9162788 -1.2543546 -0.31982964 0
2.9162788 -1.2288101 -0.42461571 0
2.9162788 -1.2751573 -0.41886878 0
2.9162788 -1.1125613 -0.067125261 0
2.9162788 -1.1284839 -0.19880623 0
2.9162788 -1.3498135 -0.45032194 0
2.9162788 -1.082328 -0.087295458 0
2.9162788 -1.4408886 -0.96817684 0
2.9162788 -1.3953823 -0.76651001 0
2.9162788 -1.2696786 -0.4111312 0
2.9162788 -1.1876516 -0.21794063 0
2.9162788 -1.37999 -0.62631947 0
2.9162788 -1.388904 -0.83261657 0
2.9162788 -1.3194228 -0.39987984 0
2.9162788 -1.2343994 -0.43516564 0
2.9162788 0.33706319 0.29704607 0
2.9162788 -0.99066126 -0.81534004 0
2.9162788 -1.1612105 -0.96162963 0
2.9162788 0.22374594 0.19233859 0
2.9162788 0.65910792 0.57333219 0
2.9162788 -1.3760986 -1.1366757 0
2.9162788 0.036523819 0.042406559 0
2.9162788 -0.4269284 -0.35635698 0
2.9162788 0.65335035 0.57060754 0
2.9162788 -0.97816133 -0.79339612 0
2.9162788 0.69879723 0.60768759 0
2.9162788 -1.054106 -0.86484522 0
2.9162788 -1.1076945 -0.91220802 0
2.9162788 -0.97987348 -0.83479965 0
2.9162788 -0.80179006 -0.66696817 0
2.9162788 -1.2573595 -1.0687757 0
2.9162788 -0.35248852 -0.26153368 0
2.9162788 1.1609797 0.99116445 0
2.9162788 -1.0687058 -0.86707336 0
2.9162788 -0.39259434 -0.33522689 0
2.9162788 -1.3847146 -1.1222893 0
2.9162788 0.077659249 0.09314096 0
2.9162788 -0.049269557 -0.042308807 0
2.9162788 -0.88109142 -0.74879903 0
2.9162788 -1.4764837 -1.2241378 0
2.9162788 -1.3086612 -1.0631225 0
2.9162788 1.1244221 0.96163976 0
2.9162788 -1.161984 -0.9715243 0
2.9162788 0.47382772 0.41502702 0
2.9162788 -0.14586246 -0.11748672 0
2.9162788 -1.4047351 -1.1702995 0
2.9162788 -0.57592171 -0.46402627 0
2.9162788 -0.58050257 -0.47812372 0
2.9162788 0.20202184 0.1731894 0
2.9162788 -1.0996547 -0.88403809 0
2.9162788 0.89628577 0.77357566 0
2.9162788 -0.9135952 -0.76097 0
2.9162788 -0.26437342 -0.20618021 0
2.9162788 -0.76024437 -0.64293039 0
2.9162788 0.29873943 0.27598786 0
2.9162788 -0.94424999 -0.77381754 0
2.9162788 0.17276371 0.16968107 0
2.9162788 -0.96563309 -0.78280985 0
2.9162788 -1.2884113 -1.0408549 0
2.9162788 -0.58182782 -0.49395907 0
2.9162788 -0.97993755 -0.8324126 0
2.9162788 -0.16100395 -0.1152035 0
2.9162788 0.35153174 0.3066293 0
2.9162788 -1.3800247 -1.1262754 0
2.9162788 -0.87082314 -0.7409516 0
2.9162788 -0.93937898 -0.79144943 0
2.9162788 0.95385981 0.81660545 0
2.9162788 0.56457353 0.50096929 0
2.9162788 1.2975354 1.1082295 0
2.9162788 0.20692658 0.18972266 0
2.9162788 1.3748899 1.1742834 0
2.9162788 0.916363 0.79302216 0
2.9162788 -0.81618571 -0.65108997 0
2.9162788 -1.1848834 -1.0066143 0
2.9162788 -0.72571063 -0.62139416 0
2.9162788 0.61168814 0.5379523 0
2.9162788 -1.470291 -1.2017803 0
2.9162788 -0.79746109 -0.65977311 0
2.9162788 -0.40059602 -0.31305051 0
2.9162788 -0.38371241 -0.30529231 0
2.9162788 -0.12538648 -0.080051541 0
2.9162788 -1.2938734 -1.0855106 0
2.9162788 -0.40910506 -0.3225137 0
2.9162788 -1.2653536 -1.0654874 0
2.9162788 -1.1821145 -0.98139131 0
2.9162788 -1.4193074 -1.1580219 0
2.9162788 -0.86955553 -0.71992725 0
2.9162788 -0.7982645 -0.67351651 0
2.9162788 -0.10195482 -0.074584723 0
2.9162788 -0.40371966 -0.31099933 0
2.9162788 -0.78115535 -0.64140683 0
2.9162788 -0.81094629 -0.64335376 0
2.9162788 -0.6357246 -0.53855687 0
2.9162788 -1.3156618 -1.1055648 0
2.9162788 -1.2419102 -1.0599259 0
2.9162788 0.19890583 0.1827327 0
2.9162788 0.50472999 0.43348789 0
2.9162788 0.9538238 1.054002 0
2.9162788 0.2992962 0.95304263 0
2.9162788 0.42783362 0.93599153 0
2.9162788 0.19967294 0.89408851 0
2.9162788 0.37412331 1.0499412 0
2.9162788 0.74119407 1.1509197 0
2.9162788 0.52279466 0.94418573 0
2.9162788 0.72980952 0.98803735 0
2.9162788 0.93627 1.133683 0
2.9162788 0.22011733 0.87115669 0
2.9162788 -0.58861291 0.4029721 0
2.9162788 0.58269715 1.1198877 0
2.9162788 1.0291775 1.1646355 0
2.9162788 0.094827056 0.69104463 0
2.9162788 0.029842973 0.72478032 0
